NaN NaN NaN NaN NaN NaN NaN NaN NaN NaN NaN NaN NaN NaN NaN NaN NaN NaN NaN NaN NaN NaN NaN NaN NaN NaN NaN NaN NaN NaN NaN NaN NaN NaN NaN NaN NaN NaN NaN NaN NaN NaN NaN NaN NaN NaN NaN NaN NaN NaN NaN 37.5 38.2 38.8 39.5 40.1 40.6 41.1 41.6 41.9 41.9 41.8 41.8 41.8 41.8 41.7 41.6 41.7 41.6 41.5 41.5 41.4 41.3 41.0 40.9 40.7 40.5 40.1 40.1 40.1 40.2 40.4 40.8 41.1 41.5 41.8 42.1 42.4 42.7 42.9 43.2 43.4 43.6 43.8 44.0 44.2 44.3 44.5 44.6 44.7 44.8 44.9 44.9 45.0 NaN NaN NaN NaN NaN 45.0 44.9 44.9 44.8 44.7 44.6 44.5 44.3 44.2 44.0 43.8 43.6 43.4 43.2 43.0 42.7 42.4 42.2 41.9 41.5 41.2 40.9 40.5 40.1 39.8 39.4 38.9
NaN NaN NaN NaN NaN NaN NaN NaN NaN NaN NaN NaN NaN NaN NaN NaN NaN NaN NaN NaN NaN NaN NaN NaN NaN NaN NaN NaN NaN NaN NaN NaN NaN NaN NaN NaN NaN NaN NaN NaN NaN NaN NaN NaN NaN NaN NaN NaN NaN NaN NaN 37.5 38.3 38.9 39.6 40.2 40.8 41.3 41.8 41.9 41.9 41.8 41.8 41.8 41.7 41.7 41.6 41.6 41.6 41.5 41.4 41.3 41.1 41.0 40.7 40.5 40.3 40.0 39.6 39.8 39.5 39.8 40.2 40.5 40.9 41.2 41.5 41.8 42.1 42.3 42.6 42.8 43.0 43.3 43.4 43.6 43.8 43.9 44.1 44.2 44.3 44.4 44.5 44.5 44.6 44.6 44.6 44.6 44.6 44.6 44.5 44.5 44.4 44.3 44.2 44.1 44.0 43.8 43.7 43.5 43.3 43.1 42.9 42.7 42.4 42.1 41.9 41.6 41.3 41.0 40.6 40.3 39.9 39.5 39.1 38.7
NaN NaN NaN NaN NaN NaN NaN NaN NaN NaN NaN NaN NaN NaN NaN NaN NaN NaN NaN NaN NaN NaN NaN NaN NaN NaN NaN NaN NaN NaN NaN NaN NaN NaN NaN NaN NaN NaN NaN NaN NaN NaN NaN NaN NaN NaN NaN NaN NaN NaN NaN 37.6 38.4 39.1 39.8 40.4 41.0 41.5 41.9 41.9 42.1 41.9 41.8 41.8 41.7 41.6 41.6 41.6 41.5 41.4 41.3 41.2 41.0 40.8 40.6 40.5 40.2 39.8 39.6 39.5 39.5 39.9 40.1 39.9 40.3 40.6 40.9 41.2 41.5 41.8 42.0 42.3 42.5 42.7 42.9 43.1 43.3 43.4 43.6 43.7 43.8 43.9 44.0 44.1 44.1 44.2 44.2 44.2 44.2 44.2 44.1 44.1 44.0 43.9 43.9 43.7 43.6 43.5 43.3 43.2 43.0 42.8 42.6 42.4 42.1 41.9 41.6 41.3 41.0 40.7 40.4 40.0 39.7 39.3 38.9 38.5
NaN NaN NaN NaN NaN NaN NaN NaN NaN NaN NaN NaN NaN NaN NaN NaN NaN NaN NaN NaN NaN NaN NaN NaN NaN NaN NaN NaN NaN NaN NaN NaN NaN NaN NaN NaN NaN NaN NaN NaN NaN NaN NaN NaN NaN NaN NaN NaN NaN NaN NaN 37.7 38.5 39.3 40.0 40.6 41.2 41.8 41.9 41.9 41.9 41.9 41.8 41.7 41.6 41.6 41.6 41.6 41.5 41.4 41.3 41.0 41.0 40.8 40.8 40.3 40.3 39.9 39.6 39.5 39.8 40.1 40.4 40.6 40.2 40.0 40.3 40.6 40.9 41.2 41.5 41.7 42.0 42.2 42.4 42.6 42.8 42.9 43.1 43.2 43.4 43.5 43.5 43.6 43.7 43.7 43.8 43.8 43.8 43.8 43.8 43.7 43.7 43.6 43.5 43.4 43.3 43.2 43.0 42.9 42.7 42.5 42.3 42.1 41.8 41.6 41.3 41.1 40.8 40.5 40.2 39.8 39.5 39.1 38.7 38.3
NaN NaN NaN NaN NaN NaN NaN NaN NaN NaN NaN NaN NaN NaN NaN NaN NaN NaN NaN NaN NaN NaN NaN NaN NaN NaN NaN NaN NaN NaN NaN NaN NaN NaN NaN NaN NaN NaN NaN NaN NaN NaN NaN NaN NaN NaN NaN NaN NaN NaN 37.1 37.9 38.7 39.5 40.2 40.9 41.6 41.9 41.9 41.8 41.8 41.7 41.7 41.7 41.6 41.6 41.6 41.5 41.4 41.3 41.1 41.0 40.8 40.7 40.5 40.3 40.4 39.6 39.5 39.6 39.9 40.2 40.5 40.8 41.0 41.0 39.8 40.1 40.4 40.7 41.0 41.2 41.5 41.7 41.9 42.1 42.3 42.5 42.6 42.8 42.9 43.0 43.1 43.2 43.3 43.3 43.4 43.4 43.4 43.4 43.4 43.3 43.3 43.2 43.2 43.1 43.0 42.8 42.7 42.6 42.4 42.2 42.0 41.8 41.6 41.4 41.1 40.8 40.5 40.3 39.9 39.6 39.3 38.9 38.6 38.2
NaN NaN NaN NaN NaN NaN NaN NaN NaN NaN NaN NaN NaN NaN NaN NaN NaN NaN NaN NaN NaN NaN NaN NaN NaN NaN NaN NaN NaN NaN NaN NaN NaN NaN NaN NaN NaN NaN NaN NaN NaN NaN NaN NaN NaN NaN NaN NaN NaN NaN 37.2 38.1 39.0 39.8 40.5 41.2 41.9 42.0 41.9 41.8 41.8 41.7 41.7 41.6 41.6 41.6 41.5 41.4 41.4 41.3 41.0 40.9 40.7 40.6 40.2 40.0 39.6 39.5 39.5 39.8 40.1 40.3 40.6 40.9 41.0 41.2 41.1 40.8 39.9 40.2 40.4 40.7 41.0 41.2 41.4 41.6 41.8 42.0 42.2 42.3 42.5 42.6 42.7 42.8 42.9 42.9 43.0 43.0 43.0 43.0 43.0 43.0 43.0 42.9 42.8 42.8 42.7 42.5 42.4 42.3 42.1 41.9 41.8 41.6 41.3 41.1 40.9 40.6 40.3 40.0 39.7 39.4 39.1 38.7 38.4 38.0
NaN NaN NaN NaN NaN NaN NaN NaN NaN NaN NaN NaN NaN NaN NaN NaN NaN NaN NaN NaN NaN NaN NaN NaN NaN NaN NaN NaN NaN NaN NaN NaN NaN NaN NaN NaN NaN NaN NaN NaN NaN NaN NaN NaN NaN NaN NaN NaN NaN NaN 37.5 38.4 39.2 40.1 40.8 41.6 41.9 41.9 41.9 41.8 41.7 41.7 41.6 41.6 41.6 41.6 41.5 41.4 41.3 41.2 41.0 40.9 40.6 40.3 40.0 39.5 39.5 39.5 39.6 40.0 40.3 40.5 40.8 41.0 41.0 41.1 41.3 41.3 41.3 40.4 39.9 40.2 40.5 40.7 41.0 41.2 41.4 41.6 41.7 41.9 42.0 42.2 42.3 42.4 42.5 42.6 42.6 42.7 42.7 42.7 42.7 42.7 42.6 42.6 42.5 42.5 42.4 42.3 42.1 42.0 41.9 41.7 41.5 41.3 41.1 40.9 40.7 40.4 40.1 39.9 39.6 39.3 38.9 38.6 38.2 37.9
NaN NaN NaN NaN NaN NaN NaN NaN NaN NaN NaN NaN NaN NaN NaN NaN NaN NaN NaN NaN NaN NaN NaN NaN NaN NaN NaN NaN NaN NaN NaN NaN NaN NaN NaN NaN NaN NaN NaN NaN NaN NaN NaN NaN NaN NaN NaN NaN NaN NaN 37.7 38.7 39.6 40.4 41.2 42.0 41.9 41.9 41.8 41.8 41.7 41.7 41.6 41.6 41.6 41.5 41.4 41.3 41.2 41.1 41.0 40.8 40.5 40.3 40.0 39.5 39.5 39.5 39.9 40.2 40.4 40.7 40.9 41.0 41.1 41.2 41.3 41.3 41.3 41.4 41.4 39.7 40.0 40.3 40.5 40.7 40.9 41.1 41.3 41.5 41.6 41.8 41.9 42.0 42.1 42.2 42.3 42.3 42.3 42.4 42.4 42.4 42.3 42.3 42.2 42.2 42.1 42.0 41.9 41.8 41.6 41.5 41.3 41.1 40.9 40.7 40.5 40.2 40.0 39.7 39.4 39.1 38.8 38.4 38.1 37.7
NaN NaN NaN NaN NaN NaN NaN NaN NaN NaN NaN NaN NaN NaN NaN NaN NaN NaN NaN NaN NaN NaN NaN NaN NaN NaN NaN NaN NaN NaN NaN NaN NaN NaN NaN NaN NaN NaN NaN NaN NaN NaN NaN NaN NaN NaN NaN NaN NaN 37.1 38.1 39.0 39.9 40.8 41.6 41.9 41.9 41.9 41.8 41.7 41.7 41.7 41.6 41.5 41.5 41.5 41.4 41.3 41.0 41.0 40.9 40.7 40.3 40.2 40.1 39.5 39.5 39.7 40.1 40.3 40.6 40.8 41.0 41.0 41.1 41.3 41.2 41.3 41.4 41.4 41.6 41.4 41.2 39.8 40.1 40.3 40.5 40.7 40.9 41.1 41.3 41.4 41.5 41.6 41.8 41.8 41.9 42.0 42.0 42.0 42.1 42.1 42.0 42.0 42.0 41.9 41.8 41.7 41.6 41.5 41.4 41.2 41.1 40.9 40.7 40.5 40.3 40.0 39.8 39.5 39.2 39.0 38.6 38.3 38.0 37.6
NaN NaN NaN NaN NaN NaN NaN NaN NaN NaN NaN NaN NaN NaN NaN NaN NaN NaN NaN NaN NaN NaN NaN NaN NaN NaN NaN NaN NaN NaN NaN NaN NaN NaN NaN NaN NaN NaN NaN NaN NaN NaN NaN NaN NaN NaN NaN NaN NaN 37.4 38.4 39.4 40.3 41.2 42.0 41.9 41.8 41.8 41.7 41.7 41.7 41.6 41.6 41.6 41.5 41.4 41.3 41.2 41.3 40.9 40.8 40.5 40.3 40.0 39.7 39.5 39.5 39.9 40.2 40.5 40.7 40.9 41.1 41.0 41.1 41.3 41.2 41.3 41.4 41.4 41.5 41.4 41.4 41.4 40.8 39.9 40.1 40.3 40.5 40.7 40.9 41.0 41.2 41.3 41.4 41.5 41.6 41.6 41.7 41.7 41.8 41.8 41.8 41.7 41.7 41.6 41.6 41.5 41.4 41.3 41.2 41.0 40.9 40.7 40.5 40.3 40.1 39.9 39.6 39.4 39.1 38.8 38.5 38.2 37.9 37.5
NaN NaN NaN NaN NaN NaN NaN NaN NaN NaN NaN NaN NaN NaN NaN NaN NaN NaN NaN NaN NaN NaN NaN NaN NaN NaN NaN NaN NaN NaN NaN NaN NaN NaN NaN NaN NaN NaN NaN NaN NaN NaN NaN NaN NaN NaN NaN NaN NaN 37.8 38.8 39.8 40.8 41.7 41.9 41.9 41.8 41.8 41.7 41.7 41.7 41.6 41.6 41.5 41.4 41.4 41.2 41.1 41.1 41.0 40.8 40.4 40.4 39.9 39.5 39.5 39.8 40.2 40.4 40.6 40.9 41.1 41.1 41.2 41.3 41.2 41.3 41.4 41.4 41.5 41.4 41.4 41.4 41.4 41.4 41.3 39.7 39.9 40.2 40.3 40.5 40.7 40.8 41.0 41.1 41.2 41.3 41.3 41.4 41.4 41.5 41.5 41.5 41.5 41.4 41.4 41.3 41.3 41.2 41.1 41.0 40.8 40.7 40.5 40.4 40.2 40.0 39.7 39.5 39.3 39.0 38.7 38.4 38.1 37.8 37.5
NaN NaN NaN NaN NaN NaN NaN NaN NaN NaN NaN NaN NaN NaN NaN NaN NaN NaN NaN NaN NaN NaN NaN NaN NaN NaN NaN NaN NaN NaN NaN NaN NaN NaN NaN NaN NaN NaN NaN NaN NaN NaN NaN NaN NaN NaN NaN NaN 37.1 38.2 39.2 40.3 41.3 41.9 42.0 41.8 41.8 41.7 41.7 41.7 41.6 41.6 41.6 41.5 41.4 41.3 41.2 41.0 41.1 40.9 40.6 40.6 40.4 39.8 39.5 39.6 40.0 40.3 40.5 40.8 41.0 41.1 41.2 41.1 41.2 41.2 41.3 41.4 41.4 41.4 41.4 41.4 41.4 41.4 41.4 41.3 41.3 41.2 39.8 40.0 40.2 40.3 40.5 40.6 40.8 40.9 41.0 41.1 41.1 41.2 41.2 41.2 41.2 41.2 41.2 41.2 41.1 41.1 41.0 40.9 40.8 40.7 40.5 40.4 40.2 40.0 39.8 39.6 39.4 39.1 38.9 38.6 38.3 38.0 37.7 37.4
NaN NaN NaN NaN NaN NaN NaN NaN NaN NaN NaN NaN NaN NaN NaN NaN NaN NaN NaN NaN NaN NaN NaN NaN NaN NaN NaN NaN NaN NaN NaN NaN NaN NaN NaN NaN NaN NaN NaN NaN NaN NaN NaN NaN NaN NaN NaN NaN 37.5 38.6 39.7 40.8 41.8 41.9 42.0 41.8 41.8 41.7 41.7 41.6 41.6 41.6 41.5 41.4 41.4 41.2 41.1 41.0 41.1 41.0 40.6 40.7 40.2 39.5 39.5 39.9 40.1 40.4 40.6 40.9 41.0 41.1 41.1 41.2 41.2 41.2 41.3 41.7 41.4 41.4 41.4 41.4 41.4 41.4 41.4 41.3 41.3 41.2 41.2 41.2 39.8 40.0 40.2 40.3 40.5 40.6 40.7 40.8 40.9 40.9 41.0 41.0 41.0 41.0 41.0 41.0 40.9 40.9 40.8 40.7 40.6 40.5 40.4 40.2 40.1 39.9 39.7 39.5 39.3 39.0 38.8 38.5 38.3 38.0 37.7 37.3
NaN NaN NaN NaN NaN NaN NaN NaN NaN NaN NaN NaN NaN NaN NaN NaN NaN NaN NaN NaN NaN NaN NaN NaN NaN NaN NaN NaN NaN NaN NaN NaN NaN NaN NaN NaN NaN NaN NaN NaN NaN NaN NaN NaN NaN NaN NaN NaN 38.0 39.1 40.2 41.3 41.9 41.9 42.0 41.8 41.7 41.7 41.7 41.7 41.6 41.5 41.5 41.4 41.3 41.1 41.1 41.1 40.8 40.6 40.8 40.7 39.8 39.5 39.8 40.0 40.4 40.6 40.8 41.0 41.1 41.1 41.2 41.2 41.2 41.3 41.4 41.5 41.4 41.4 41.4 41.4 41.3 41.4 41.3 41.3 41.3 41.2 41.1 41.1 41.2 39.7 39.9 40.0 40.2 40.3 40.4 40.5 40.6 40.7 40.7 40.8 40.8 40.8 40.8 40.8 40.7 40.7 40.6 40.5 40.4 40.3 40.2 40.1 39.9 39.8 39.6 39.4 39.2 39.0 38.7 38.5 38.2 37.9 37.6 37.3
NaN NaN NaN NaN NaN NaN NaN NaN NaN NaN NaN NaN NaN NaN NaN NaN NaN NaN NaN NaN NaN NaN NaN NaN NaN NaN NaN NaN NaN NaN NaN NaN NaN NaN NaN NaN NaN NaN NaN NaN NaN NaN NaN NaN NaN NaN NaN 37.2 38.5 39.7 40.8 41.9 41.9 42.0 41.8 41.7 41.7 41.7 41.7 41.6 41.6 41.5 41.4 41.3 41.1 41.0 41.0 41.0 40.7 40.6 40.8 40.6 40.0 39.7 40.0 40.2 40.5 40.8 40.9 41.1 41.1 41.1 41.2 41.1 41.2 41.3 41.5 41.5 41.4 41.4 41.4 41.4 41.3 41.3 41.3 41.3 41.2 41.2 41.1 41.8 42.0 41.1 41.3 39.8 39.9 40.0 40.2 40.3 40.4 40.4 40.5 40.5 40.6 40.6 40.6 40.6 40.6 40.5 40.5 40.4 40.3 40.2 40.1 40.0 39.8 39.7 39.5 39.3 39.1 38.9 38.6 38.4 38.1 37.9 37.6 37.3
NaN NaN NaN NaN NaN NaN NaN NaN NaN NaN NaN NaN NaN NaN NaN NaN NaN NaN NaN NaN NaN NaN NaN NaN NaN NaN NaN NaN NaN NaN NaN NaN NaN NaN NaN NaN NaN NaN NaN NaN NaN NaN NaN NaN NaN NaN NaN 37.8 39.0 40.2 41.4 41.9 41.9 41.8 41.8 41.7 41.7 41.6 41.6 41.6 41.6 41.5 41.3 41.3 41.1 41.0 40.8 40.6 40.5 40.6 40.3 39.6 39.7 39.8 40.1 40.4 40.7 40.9 41.0 42.0 41.1 41.1 41.1 41.2 41.2 41.3 41.5 41.4 41.3 41.4 41.4 41.3 41.2 41.3 41.3 41.3 41.2 41.1 41.1 41.7 42.5 41.9 41.5 41.0 40.7 39.8 39.9 40.0 40.1 40.2 40.3 40.3 40.4 40.4 40.4 40.4 40.4 40.4 40.3 40.3 40.2 40.1 40.0 39.9 39.7 39.6 39.4 39.2 39.0 38.8 38.6 38.4 38.1 37.8 37.6 37.3
NaN NaN NaN NaN NaN NaN NaN NaN NaN NaN NaN NaN NaN NaN NaN NaN NaN NaN NaN NaN NaN NaN NaN NaN NaN NaN NaN NaN NaN NaN NaN NaN NaN NaN NaN NaN NaN NaN NaN NaN NaN NaN NaN NaN NaN NaN NaN 38.3 39.6 40.9 42.1 41.9 41.8 41.8 41.7 41.7 41.6 41.6 41.6 41.7 41.6 41.4 41.3 41.1 41.1 40.9 40.8 40.6 40.6 40.9 40.1 39.7 39.8 40.0 40.3 40.5 40.8 41.0 42.1 42.7 42.0 41.1 41.1 41.2 41.3 41.5 41.4 41.4 41.4 41.3 41.3 41.3 41.3 41.2 41.2 41.1 41.1 41.1 41.1 40.9 41.8 41.9 41.5 40.8 40.7 40.6 40.4 39.8 39.9 40.0 40.1 40.2 40.2 40.2 40.3 40.3 40.3 40.2 40.2 40.1 40.1 40.0 39.9 39.8 39.6 39.5 39.3 39.2 39.0 38.8 38.6 38.3 38.1 37.8 37.6 37.3
NaN NaN NaN NaN NaN NaN NaN NaN NaN NaN NaN NaN NaN NaN NaN NaN NaN NaN NaN NaN NaN NaN NaN NaN NaN NaN NaN NaN NaN NaN NaN NaN NaN NaN NaN NaN NaN NaN NaN NaN NaN NaN NaN NaN NaN NaN 37.6 38.9 40.2 41.5 41.9 41.8 41.8 41.7 41.7 41.6 41.6 41.6 41.5 41.5 41.3 41.4 41.2 41.0 40.9 40.9 40.6 40.5 40.7 40.5 39.9 39.6 39.9 40.2 40.4 40.7 40.9 41.0 42.4 42.9 41.8 41.0 41.1 41.2 41.3 41.4 41.4 41.3 41.3 41.3 41.2 41.2 41.2 41.2 41.1 41.1 41.1 41.0 42.3 41.3 40.9 41.6 41.4 40.9 40.7 40.6 40.6 40.5 39.7 39.8 39.9 40.0 40.0 40.1 40.1 40.1 40.1 40.1 40.1 40.0 40.0 39.9 39.8 39.7 39.6 39.4 39.3 39.1 38.9 38.8 38.5 38.3 38.1 37.8 37.6 37.3
NaN NaN NaN NaN NaN NaN NaN NaN NaN NaN NaN NaN NaN NaN NaN NaN NaN NaN NaN NaN NaN NaN NaN NaN NaN NaN NaN NaN NaN NaN NaN NaN NaN NaN NaN NaN NaN NaN NaN NaN NaN NaN NaN NaN NaN NaN 38.2 39.6 40.9 42.1 41.9 41.8 41.8 41.7 41.7 41.6 41.6 41.6 41.5 41.4 41.4 41.3 41.1 41.1 40.9 40.7 40.4 40.4 40.5 40.0 39.7 39.9 40.1 40.4 40.6 40.9 41.0 42.1 42.7 42.2 42.1 41.1 41.1 41.2 41.4 41.2 41.2 41.3 41.3 41.2 41.2 41.2 41.2 41.2 41.1 41.0 41.1 41.3 42.2 42.2 41.8 40.8 40.7 40.7 40.6 40.6 40.6 40.5 40.5 40.4 39.8 39.8 39.9 39.9 40.0 40.0 40.0 40.0 40.0 39.9 39.9 39.8 39.7 39.6 39.5 39.4 39.3 39.1 38.9 38.7 38.5 38.3 38.1 37.9 37.6 37.3
NaN NaN NaN NaN NaN NaN NaN NaN NaN NaN NaN NaN NaN NaN NaN NaN NaN NaN NaN NaN NaN NaN NaN NaN NaN NaN NaN NaN NaN NaN NaN NaN NaN NaN NaN NaN NaN NaN NaN NaN NaN NaN NaN NaN NaN 37.4 38.9 40.3 41.6 41.8 41.8 41.7 41.7 41.7 41.6 41.6 41.6 41.5 41.5 41.4 41.3 41.2 41.3 41.0 40.9 40.6 40.3 40.5 39.8 39.7 39.7 39.9 40.3 40.5 40.7 40.9 41.0 42.5 43.0 42.7 41.0 41.0 41.1 41.2 41.4 42.5 42.3 41.2 41.2 41.2 41.1 41.1 41.1 41.1 41.1 41.1 42.1 41.6 42.0 41.8 41.6 40.8 40.7 40.7 40.7 40.6 40.5 40.5 40.5 40.4 40.3 40.2 39.8 39.8 39.9 39.9 39.9 39.9 39.9 39.9 39.8 39.8 39.7 39.6 39.5 39.4 39.2 39.1 38.9 38.7 38.6 38.3 38.1 37.9 37.6 37.4
NaN NaN NaN NaN NaN NaN NaN NaN NaN NaN NaN NaN NaN NaN NaN NaN NaN NaN NaN NaN NaN NaN NaN NaN NaN NaN NaN NaN NaN NaN NaN NaN NaN NaN NaN NaN NaN NaN NaN NaN NaN NaN NaN NaN NaN 38.1 39.6 41.0 41.9 41.8 41.8 41.7 41.7 41.7 41.6 41.6 41.6 41.5 41.5 41.4 41.2 41.1 41.3 40.9 40.7 40.4 40.5 39.9 39.5 39.5 39.8 40.1 40.4 40.6 40.9 41.0 42.2 42.9 42.4 41.9 41.0 41.0 41.1 41.2 41.1 41.8 41.8 42.4 42.0 41.2 41.1 41.1 41.1 41.1 41.0 42.0 42.4 42.3 41.5 41.5 40.8 41.1 41.9 41.5 40.8 40.6 40.5 40.5 40.4 40.4 40.3 40.2 40.1 39.7 39.8 39.8 39.8 39.8 39.8 39.8 39.8 39.7 39.6 39.6 39.5 39.4 39.2 39.1 38.9 38.8 38.6 38.4 38.2 37.9 37.7 37.4
NaN NaN NaN NaN NaN NaN NaN NaN NaN NaN NaN NaN NaN NaN NaN NaN NaN NaN NaN NaN NaN NaN NaN NaN NaN NaN NaN NaN NaN NaN NaN NaN NaN NaN NaN NaN NaN NaN NaN NaN NaN NaN NaN NaN 37.3 38.8 40.3 41.8 41.8 41.8 41.7 41.7 41.6 41.6 41.6 41.6 41.5 41.5 41.4 41.3 41.1 41.3 40.9 40.8 40.5 40.4 40.4 39.7 39.5 39.7 40.0 40.2 40.5 40.8 41.0 41.0 41.0 42.5 42.2 41.0 40.9 41.0 41.0 41.2 41.0 41.1 42.2 42.0 41.4 41.1 41.1 41.0 41.1 41.0 41.0 40.9 41.7 42.1 41.8 41.4 41.1 41.0 41.6 41.7 41.3 40.5 40.5 40.5 40.4 40.4 40.4 40.3 40.2 40.1 40.0 39.7 39.7 39.8 39.8 39.7 39.7 39.7 39.6 39.5 39.5 39.3 39.2 39.1 39.0 38.8 38.6 38.4 38.2 38.0 37.8 37.5
NaN NaN NaN NaN NaN NaN NaN NaN NaN NaN NaN NaN NaN NaN NaN NaN NaN NaN NaN NaN NaN NaN NaN NaN NaN NaN NaN NaN NaN NaN NaN NaN NaN NaN NaN NaN NaN NaN NaN NaN NaN NaN NaN NaN 38.0 39.6 41.1 41.9 41.9 41.8 41.7 41.7 41.6 41.6 41.6 41.6 41.5 41.4 41.4 41.1 41.0 41.0 40.9 40.6 40.5 40.5 40.0 39.6 39.5 39.9 40.1 40.4 40.6 40.9 41.0 41.0 41.0 41.0 40.9 40.9 40.9 40.9 41.0 41.0 41.0 41.0 40.9 41.0 41.1 41.0 41.0 41.0 41.0 41.0 41.0 40.9 41.4 41.9 41.5 41.1 41.5 41.7 41.7 41.1 41.0 40.5 40.4 40.4 40.4 40.3 40.3 40.2 40.2 40.1 40.0 39.9 39.9 39.7 39.7 39.7 39.7 39.7 39.6 39.5 39.5 39.4 39.3 39.1 39.0 38.8 38.7 38.5 38.3 38.1 37.9 37.6
NaN NaN NaN NaN NaN NaN NaN NaN NaN NaN NaN NaN NaN NaN NaN NaN NaN NaN NaN NaN NaN NaN NaN NaN NaN NaN NaN NaN NaN NaN NaN NaN NaN NaN NaN NaN NaN NaN NaN NaN NaN NaN NaN 37.2 38.8 40.4 42.0 41.8 42.0 41.9 41.7 41.7 41.6 41.6 41.5 41.6 41.5 41.4 41.3 41.1 41.1 41.0 41.0 40.6 40.5 40.3 39.6 39.5 39.7 40.0 40.3 40.5 40.8 41.0 41.0 41.0 40.9 40.9 40.9 40.9 40.9 40.8 40.9 40.9 40.9 40.9 40.9 40.8 40.9 40.9 41.0 40.9 41.0 40.9 40.9 40.8 40.8 40.8 40.8 40.7 41.6 42.1 42.0 41.5 40.5 40.4 40.4 40.4 40.3 40.3 40.2 40.2 40.1 40.1 40.0 39.9 39.8 39.8 39.7 39.7 39.7 39.7 39.6 39.6 39.5 39.4 39.3 39.2 39.0 38.9 38.7 38.6 38.4 38.2 38.0 37.7
NaN NaN NaN NaN NaN NaN NaN NaN NaN NaN NaN NaN NaN NaN NaN NaN NaN NaN NaN NaN NaN NaN NaN NaN NaN NaN NaN NaN NaN NaN NaN NaN NaN NaN NaN NaN NaN NaN NaN NaN NaN NaN NaN 38.0 39.6 41.3 41.8 41.8 41.9 41.7 41.7 41.6 41.6 41.6 41.5 41.5 41.4 41.3 41.2 41.1 41.1 40.8 40.7 40.3 40.2 39.6 39.5 39.5 39.9 40.2 40.4 40.7 41.0 41.0 41.0 40.9 40.9 40.9 40.8 40.8 40.8 40.8 40.7 40.8 40.8 40.8 40.8 40.8 40.8 40.9 40.9 40.9 40.9 40.9 40.8 40.8 40.8 40.7 40.8 41.7 41.4 41.2 41.5 41.0 40.5 40.4 40.3 40.3 40.3 40.2 40.2 40.1 40.1 40.0 40.0 39.9 39.8 40.2 39.7 40.4 39.7 39.7 39.6 39.6 39.5 39.4 39.3 39.2 39.1 39.0 38.8 38.7 38.5 38.3 38.1 38.0
NaN NaN NaN NaN NaN NaN NaN NaN NaN NaN NaN NaN NaN NaN NaN NaN NaN NaN NaN NaN NaN NaN NaN NaN NaN NaN NaN NaN NaN NaN NaN NaN NaN NaN NaN NaN NaN NaN NaN NaN NaN NaN 37.1 38.8 40.5 42.1 41.8 41.8 41.7 41.7 41.8 41.7 41.7 41.6 41.5 41.5 41.3 41.2 41.5 41.3 41.2 40.9 40.5 40.3 40.1 39.5 39.5 39.9 40.0 40.3 40.6 40.9 40.9 40.9 40.9 40.9 40.9 40.8 40.8 40.8 40.8 40.7 40.7 40.7 40.7 40.7 40.7 40.8 40.8 40.8 40.8 40.8 40.8 40.8 40.7 40.8 40.7 40.7 40.6 41.4 41.7 41.5 41.1 40.5 40.4 40.3 40.4 40.3 40.2 40.2 40.1 40.1 40.0 40.0 39.9 39.9 39.8 41.1 40.6 39.9 39.5 39.9 39.7 39.6 39.6 39.5 39.4 39.3 39.2 39.1 38.9 38.8 38.6 38.4 38.2 38.2
NaN NaN NaN NaN NaN NaN NaN NaN NaN NaN NaN NaN NaN NaN NaN NaN NaN NaN NaN NaN NaN NaN NaN NaN NaN NaN NaN NaN NaN NaN NaN NaN NaN NaN NaN NaN NaN NaN NaN NaN NaN NaN 37.9 39.7 41.4 41.9 41.8 41.8 41.7 41.7 41.6 41.6 41.6 41.8 41.6 41.4 41.3 41.1 41.5 41.5 41.0 40.5 40.3 40.1 39.7 39.5 39.7 39.9 40.2 40.4 40.7 40.9 40.9 40.9 40.8 40.8 40.8 40.8 40.8 40.8 40.8 40.8 40.7 40.7 40.6 40.6 40.7 40.7 40.7 40.7 40.7 40.7 40.7 40.7 40.7 40.7 40.7 40.6 40.6 40.6 41.7 41.3 41.0 40.4 40.4 40.4 40.3 40.3 40.2 40.1 40.1 40.0 40.0 39.9 39.9 39.8 39.8 40.7 40.9 40.5 39.8 39.5 39.4 39.7 39.6 39.6 39.5 39.4 39.3 39.2 39.0 38.9 38.7 38.5 38.4 38.4
NaN NaN NaN NaN NaN NaN NaN NaN NaN NaN NaN NaN NaN NaN NaN NaN NaN NaN NaN NaN NaN NaN NaN NaN NaN NaN NaN NaN NaN NaN NaN NaN NaN NaN NaN NaN NaN NaN NaN NaN NaN 37.0 38.8 40.6 42.2 41.8 41.8 41.7 41.7 41.6 41.6 41.6 41.6 41.5 41.4 41.3 41.1 41.2 41.3 41.0 40.9 40.5 40.4 39.9 39.5 39.7 39.9 40.1 40.3 40.6 40.8 40.8 40.9 40.9 40.8 40.8 40.8 40.8 40.8 40.7 40.7 40.7 40.7 40.6 40.6 40.6 40.6 40.6 40.6 40.6 40.6 40.6 40.6 40.6 40.6 40.6 40.6 40.6 40.6 40.5 40.5 40.8 40.5 40.4 40.4 40.3 40.3 40.2 40.1 40.1 40.0 40.0 39.9 39.9 40.0 40.7 40.9 39.8 40.5 40.2 39.4 39.4 39.4 39.4 39.3 39.7 39.6 39.5 39.4 39.3 39.2 39.0 38.9 38.7 38.6 38.5
NaN NaN NaN NaN NaN NaN NaN NaN NaN NaN NaN NaN NaN NaN NaN NaN NaN NaN NaN NaN NaN NaN NaN NaN NaN NaN NaN NaN NaN NaN NaN NaN NaN NaN NaN NaN NaN NaN NaN NaN NaN 37.9 39.8 41.6 41.9 41.8 41.8 41.7 41.7 41.6 41.6 41.6 41.5 41.5 41.4 41.3 41.2 41.3 41.3 40.6 40.5 40.5 40.2 39.5 39.5 39.8 40.0 40.2 40.5 40.8 40.8 40.8 40.8 40.8 40.8 40.8 40.7 40.8 40.7 40.7 40.7 40.7 40.6 40.6 40.6 40.6 40.6 40.5 40.5 40.5 40.6 40.5 40.5 40.6 40.5 40.5 40.5 40.5 40.5 40.5 40.4 40.4 40.3 40.3 40.3 40.3 40.2 40.2 40.1 40.1 40.0 40.0 39.9 39.8 40.4 40.8 41.3 41.4 40.5 39.5 39.5 39.4 39.4 39.4 39.3 39.3 39.2 39.6 39.5 39.4 39.3 39.2 39.0 38.8 38.7 38.6
NaN NaN NaN NaN NaN NaN NaN NaN NaN NaN NaN NaN NaN NaN NaN NaN NaN NaN NaN NaN NaN NaN NaN NaN NaN NaN NaN NaN NaN NaN NaN NaN NaN NaN NaN NaN NaN NaN NaN NaN NaN 38.9 40.8 41.9 41.8 41.8 41.7 41.7 41.7 41.6 41.6 41.5 41.5 41.4 41.4 41.2 41.2 41.2 41.1 40.5 40.7 40.5 40.0 39.5 39.5 39.9 40.2 40.4 40.7 40.9 40.8 40.9 40.8 40.8 40.8 40.8 40.7 40.8 40.7 40.7 40.7 40.6 40.6 40.6 40.5 40.5 40.5 40.5 40.5 40.5 40.5 40.5 40.5 40.5 40.5 40.5 40.5 40.4 40.5 40.4 40.4 40.4 40.3 40.3 40.3 40.2 40.2 40.1 40.0 40.0 40.0 39.9 39.9 40.1 40.1 40.6 40.7 41.4 40.8 39.5 39.4 39.4 39.4 39.4 39.3 39.3 39.2 39.2 39.7 39.6 39.5 39.3 39.1 38.9 38.8 38.7
NaN NaN NaN NaN NaN NaN NaN NaN NaN NaN NaN NaN NaN NaN NaN NaN NaN NaN NaN NaN NaN NaN NaN NaN NaN NaN NaN NaN NaN NaN NaN NaN NaN NaN NaN NaN NaN NaN NaN NaN 37.9 39.9 41.8 41.9 41.8 41.7 41.8 41.7 41.6 41.6 41.5 41.5 41.4 41.4 41.2 41.1 41.1 41.1 40.8 40.4 40.3 40.2 39.6 39.5 39.9 40.0 40.3 40.5 40.7 40.8 40.9 40.9 40.8 40.8 40.7 40.7 40.7 40.7 40.7 40.6 40.6 40.6 40.6 40.5 40.5 40.5 40.5 40.5 40.5 40.5 40.4 40.4 40.4 40.4 40.4 40.4 40.4 40.4 40.4 40.4 40.4 40.3 40.3 40.2 40.2 40.2 40.1 40.1 40.0 40.0 39.9 40.1 39.9 40.1 40.3 40.2 40.3 40.1 39.5 39.5 39.4 39.4 39.4 39.4 39.3 39.3 39.2 39.1 39.0 39.0 39.6 39.5 39.2 39.0 38.9 38.7
NaN NaN NaN NaN NaN NaN NaN NaN NaN NaN NaN NaN NaN NaN NaN NaN NaN NaN NaN NaN NaN NaN NaN NaN NaN NaN NaN NaN NaN NaN NaN NaN NaN NaN NaN NaN NaN NaN NaN NaN 39.0 40.9 41.8 41.8 41.8 41.7 41.7 41.6 41.6 41.6 41.5 41.5 41.4 41.3 41.2 41.1 41.1 41.0 40.7 40.5 40.1 39.6 39.5 39.5 40.0 40.2 40.4 40.7 40.8 40.8 40.9 40.8 40.7 40.8 40.7 40.7 40.6 40.6 40.6 40.6 40.6 40.6 40.5 40.5 40.5 40.5 40.5 40.4 40.4 40.4 40.3 40.3 40.3 40.3 40.3 40.3 40.4 40.4 40.3 40.3 40.3 40.3 40.3 40.2 40.2 40.1 40.1 40.0 40.0 39.9 40.6 40.7 40.8 40.1 40.4 40.2 40.1 39.5 39.4 39.4 39.4 39.4 39.4 39.3 39.2 39.2 39.2 39.1 39.0 39.0 39.7 39.5 39.3 39.1 38.9 38.7
NaN NaN NaN NaN NaN NaN NaN NaN NaN NaN NaN NaN NaN NaN NaN NaN NaN NaN NaN NaN NaN NaN NaN NaN NaN NaN NaN NaN NaN NaN NaN NaN NaN NaN NaN NaN NaN NaN NaN 38.0 40.0 42.0 41.9 41.8 41.8 41.7 41.7 41.6 41.6 41.6 41.5 41.4 41.3 41.2 41.3 41.2 41.1 40.9 40.5 40.6 40.0 39.5 39.4 39.8 40.1 40.3 40.5 40.8 40.8 40.8 40.8 40.8 40.8 40.7 40.7 40.6 40.6 40.6 40.6 40.5 40.6 40.5 40.5 40.5 40.5 40.5 40.4 40.4 40.4 40.3 40.3 40.3 40.3 40.3 40.3 40.3 40.3 40.3 40.3 40.3 40.3 40.2 40.2 40.2 40.2 40.1 40.0 40.0 39.9 39.9 40.0 40.7 41.2 41.1 40.2 39.8 39.6 39.5 39.4 39.4 39.4 39.3 39.3 39.2 39.2 39.2 39.1 39.1 39.0 39.0 38.9 38.9 38.8 39.1 38.9 38.7
NaN NaN NaN NaN NaN NaN NaN NaN NaN NaN NaN NaN NaN NaN NaN NaN NaN NaN NaN NaN NaN NaN NaN NaN NaN NaN NaN NaN NaN NaN NaN NaN NaN NaN NaN NaN NaN NaN NaN 39.0 41.1 41.8 41.9 41.8 41.7 41.7 41.7 41.6 41.6 41.5 41.4 41.3 41.3 41.2 41.4 41.4 41.0 40.7 40.5 40.4 39.6 39.5 39.7 39.9 40.2 40.4 40.7 40.8 40.8 40.8 40.8 40.7 40.7 40.6 40.6 40.6 40.5 40.5 40.5 40.5 40.5 40.5 40.5 40.5 40.5 40.5 40.4 40.4 40.3 40.3 40.3 40.3 40.3 40.3 40.3 40.2 40.2 40.2 40.2 40.2 40.2 40.2 40.1 40.1 40.1 40.0 40.0 39.9 39.9 39.9 39.8 39.9 40.8 41.0 40.5 39.5 39.5 39.4 39.4 39.4 39.3 39.3 39.2 39.2 39.2 39.1 39.1 39.0 38.9 39.0 38.9 38.9 38.8 38.7 38.7 38.7
NaN NaN NaN NaN NaN NaN NaN NaN NaN NaN NaN NaN NaN NaN NaN NaN NaN NaN NaN NaN NaN NaN NaN NaN NaN NaN NaN NaN NaN NaN NaN NaN NaN NaN NaN NaN NaN NaN 38.0 40.2 42.2 41.9 41.8 41.8 41.7 41.7 41.6 41.5 41.5 41.5 41.4 41.3 41.2 41.4 41.3 41.0 40.8 40.6 40.5 39.7 39.5 39.4 39.9 40.1 40.4 40.6 40.8 40.8 40.8 40.8 40.8 40.7 40.7 40.6 40.6 40.5 40.5 40.5 40.5 40.4 40.4 40.5 40.5 40.4 40.4 40.4 40.3 40.3 40.3 40.3 40.2 40.3 40.2 40.2 40.2 40.1 40.1 40.1 40.1 40.1 40.1 40.1 40.1 40.0 40.0 40.0 40.0 39.9 39.9 39.8 39.8 39.7 39.7 40.1 39.6 39.5 39.5 39.4 39.4 39.3 39.3 39.2 39.2 39.1 39.1 39.0 39.0 39.0 39.0 38.9 38.9 38.8 38.8 38.7 38.7 38.7
NaN NaN NaN NaN NaN NaN NaN NaN NaN NaN NaN NaN NaN NaN NaN NaN NaN NaN NaN NaN NaN NaN NaN NaN NaN NaN NaN NaN NaN NaN NaN NaN NaN NaN NaN NaN NaN NaN 39.2 41.3 41.8 41.8 41.8 41.7 41.7 41.7 41.7 41.6 41.5 41.4 41.3 41.2 41.2 41.4 41.1 40.7 40.7 40.7 40.2 39.5 39.4 39.8 40.0 40.2 40.5 40.7 40.9 40.8 40.8 40.8 40.8 40.7 40.6 40.6 40.6 40.5 40.5 40.5 40.4 40.4 40.4 40.3 40.4 40.4 40.4 40.3 40.3 40.3 40.2 40.2 40.2 40.2 40.2 40.2 40.2 40.1 40.1 40.1 40.1 40.1 40.1 40.1 40.0 40.0 40.0 40.0 39.9 39.9 39.9 39.8 39.8 39.7 39.7 39.6 39.5 39.5 39.4 39.4 39.4 39.3 39.3 39.2 39.1 39.1 39.0 39.0 39.0 38.9 38.9 38.9 38.8 38.8 38.7 38.7 38.6 38.6
NaN NaN NaN NaN NaN NaN NaN NaN NaN NaN NaN NaN NaN NaN NaN NaN NaN NaN NaN NaN NaN NaN NaN NaN NaN NaN NaN NaN NaN NaN NaN NaN NaN NaN NaN NaN NaN 38.1 40.3 42.3 41.8 41.8 41.7 41.7 41.7 41.7 41.6 41.7 41.6 41.3 41.2 41.2 41.2 41.3 40.9 40.5 40.6 40.3 39.7 39.5 39.5 39.9 40.1 40.4 40.6 40.8 40.8 40.8 40.8 40.8 40.7 40.7 40.7 40.6 40.5 40.5 40.5 40.4 40.4 40.4 40.3 40.3 40.3 40.3 40.3 40.2 40.2 40.2 40.2 40.2 40.2 40.2 40.1 40.1 40.1 40.1 40.0 40.1 40.1 40.0 40.0 40.0 40.0 40.0 39.9 39.9 39.9 39.9 39.8 39.8 39.7 39.7 39.6 39.5 39.5 39.5 39.4 39.4 39.3 39.3 39.2 39.2 39.1 39.0 39.0 39.0 39.0 38.9 38.9 38.8 38.8 38.8 38.7 38.7 38.5 38.4
NaN NaN NaN NaN NaN NaN NaN NaN NaN NaN NaN NaN NaN NaN NaN NaN NaN NaN NaN NaN NaN NaN NaN NaN NaN NaN NaN NaN NaN NaN NaN NaN NaN NaN NaN NaN NaN 39.3 41.5 41.8 41.8 41.8 41.7 41.7 41.6 41.6 41.5 41.6 41.4 41.3 41.1 41.1 41.2 41.3 40.6 40.5 40.5 39.7 39.5 39.5 39.8 40.0 40.2 40.5 40.8 40.8 40.9 40.8 40.8 40.8 40.7 40.7 40.6 40.5 40.5 40.5 40.4 40.4 40.4 40.4 40.3 40.3 40.2 40.2 40.2 40.2 40.2 40.2 40.1 40.1 40.1 40.1 40.1 40.1 40.0 40.0 40.0 40.0 40.0 40.0 39.9 39.9 39.9 39.9 39.9 39.9 39.8 39.8 39.8 39.7 39.7 39.6 39.6 39.5 39.5 39.5 39.4 39.4 39.3 39.3 39.2 39.1 39.1 39.0 39.0 39.0 39.6 39.6 38.9 38.8 38.8 38.7 38.7 38.6 38.5 38.0
NaN NaN NaN NaN NaN NaN NaN NaN NaN NaN NaN NaN NaN NaN NaN NaN NaN NaN NaN NaN NaN NaN NaN NaN NaN NaN NaN NaN NaN NaN NaN NaN NaN NaN NaN NaN 38.2 40.5 42.1 41.8 41.8 41.7 41.7 41.7 41.6 41.6 41.5 41.4 41.3 41.2 41.1 41.2 41.1 40.4 40.5 40.8 40.3 39.5 39.5 39.8 39.9 40.1 40.4 40.7 40.9 40.9 40.9 40.9 40.8 40.8 40.7 40.6 40.6 40.5 40.5 40.5 40.4 40.4 40.4 40.3 40.3 40.2 40.2 40.1 40.1 40.1 40.1 40.1 40.1 40.1 40.1 40.0 40.0 40.0 40.0 40.0 40.0 39.9 39.9 39.9 39.9 39.9 39.9 39.9 39.8 39.8 39.7 39.7 39.7 39.6 39.6 39.6 39.5 39.5 39.5 39.4 39.4 39.4 39.3 39.3 39.2 39.1 39.0 39.1 38.9 38.9 39.7 39.6 38.8 38.8 38.7 38.7 38.6 38.6 38.2 37.7
NaN NaN NaN NaN NaN NaN NaN NaN NaN NaN NaN NaN NaN NaN NaN NaN NaN NaN NaN NaN NaN NaN NaN NaN NaN NaN NaN NaN NaN NaN NaN NaN NaN NaN NaN 37.1 39.4 41.8 41.8 41.7 41.7 41.7 41.7 41.6 41.6 41.5 41.5 41.4 41.3 41.1 41.3 40.9 40.9 40.5 40.3 40.1 39.5 39.5 39.4 39.8 40.0 40.3 40.6 40.9 40.9 40.9 40.9 40.9 40.9 40.8 40.7 40.7 40.5 40.5 40.5 40.4 40.4 40.3 40.3 40.2 40.2 40.2 40.1 40.1 40.0 40.0 40.0 40.0 40.0 40.0 40.0 40.0 40.0 39.9 39.9 39.9 39.9 39.9 39.9 39.9 39.8 39.8 39.8 39.8 39.8 39.8 39.7 39.7 39.6 39.6 39.6 39.5 39.5 39.5 39.5 39.4 39.4 39.3 39.3 39.2 39.1 39.1 39.0 38.9 38.9 39.5 39.3 38.9 39.0 38.7 38.7 38.7 38.6 38.4 37.9 37.4
NaN NaN NaN NaN NaN NaN NaN NaN NaN NaN NaN NaN NaN NaN NaN NaN NaN NaN NaN NaN NaN NaN NaN NaN NaN NaN NaN NaN NaN NaN NaN NaN NaN NaN NaN 38.3 40.7 42.0 41.8 41.7 41.7 41.7 41.6 41.6 41.5 41.5 41.4 41.3 41.2 41.2 41.3 41.0 40.7 40.3 40.2 39.6 39.5 39.5 39.8 39.9 40.2 40.5 40.7 40.9 40.9 40.8 40.9 40.8 40.8 40.8 40.8 40.7 40.6 40.5 40.5 40.4 40.4 40.4 40.3 40.2 40.2 40.2 40.1 40.0 40.0 40.0 40.0 39.9 39.9 39.9 39.9 39.9 39.9 39.9 39.9 39.8 39.8 39.8 39.8 39.8 39.8 39.8 39.8 39.8 39.7 39.7 39.7 39.6 39.6 39.5 39.5 39.5 39.4 39.4 39.4 39.4 39.3 39.3 39.2 39.2 39.1 39.0 39.0 38.9 39.0 39.5 39.0 38.8 38.8 38.7 38.7 38.6 38.6 38.1 37.7 37.2
NaN NaN NaN NaN NaN NaN NaN NaN NaN NaN NaN NaN NaN NaN NaN NaN NaN NaN NaN NaN NaN NaN NaN NaN NaN NaN NaN NaN NaN NaN NaN NaN NaN NaN 37.1 39.6 42.0 41.8 41.7 41.7 41.7 41.6 41.6 41.6 41.5 41.4 41.3 41.3 41.1 41.2 41.2 40.8 40.6 40.3 39.7 39.5 39.5 39.7 39.9 40.1 40.4 40.7 40.8 40.8 40.8 40.8 40.8 40.8 40.8 40.9 40.9 40.7 40.6 40.6 40.5 40.5 40.5 40.4 40.3 40.3 40.2 40.1 40.0 40.0 40.0 39.9 39.9 39.9 39.9 39.9 39.8 39.8 39.8 39.8 39.8 39.8 39.8 39.8 39.8 39.8 39.7 39.7 39.7 39.7 39.7 39.7 39.6 39.6 39.5 39.5 39.5 39.5 39.4 39.4 39.4 39.3 39.3 39.2 39.2 39.1 39.1 39.0 38.9 38.9 39.5 39.4 38.8 38.8 38.7 38.7 38.7 38.6 38.3 37.9 37.4 NaN
NaN NaN NaN NaN NaN NaN NaN NaN NaN NaN NaN NaN NaN NaN NaN NaN NaN NaN NaN NaN NaN NaN NaN NaN NaN NaN NaN NaN NaN NaN NaN NaN NaN NaN 38.5 40.9 41.8 41.8 41.7 41.7 41.6 41.7 41.6 41.6 41.5 41.4 41.3 41.1 41.1 41.2 41.0 40.6 40.5 40.6 39.6 39.5 39.6 39.9 40.1 40.3 40.5 40.8 40.8 40.8 40.8 40.7 40.8 40.9 40.9 40.9 40.9 40.8 40.7 40.6 40.5 40.4 40.4 40.3 40.3 40.2 40.1 40.0 40.0 40.0 40.0 39.9 39.9 39.9 39.8 39.8 39.8 39.8 39.8 39.8 39.7 39.7 39.7 39.7 39.7 39.7 39.7 39.7 39.7 39.6 39.7 39.6 39.6 39.5 39.5 39.5 39.4 39.4 39.4 39.4 39.3 39.3 39.2 39.2 39.1 39.1 39.0 39.0 38.9 38.9 39.7 38.9 38.8 38.8 38.7 38.7 38.6 38.6 38.1 37.6 37.1 NaN
NaN NaN NaN NaN NaN NaN NaN NaN NaN NaN NaN NaN NaN NaN NaN NaN NaN NaN NaN NaN NaN NaN NaN NaN NaN NaN NaN NaN NaN NaN NaN NaN NaN 37.2 39.8 42.3 41.9 41.7 41.7 41.6 41.6 41.6 41.6 41.5 41.4 41.3 41.3 41.1 41.2 41.1 40.8 40.5 40.5 40.2 39.5 39.3 39.7 39.9 40.2 40.4 40.7 40.8 40.8 40.8 40.7 40.8 40.8 40.9 40.9 40.8 40.9 40.8 40.7 40.7 40.6 40.5 40.4 40.4 40.3 40.2 40.2 40.1 40.1 40.0 40.0 39.9 39.9 39.8 39.8 39.7 39.7 39.7 39.7 39.7 39.7 39.6 39.6 39.6 39.6 39.6 39.6 39.6 39.6 39.6 39.6 39.5 39.5 39.5 39.5 39.4 39.4 39.4 39.3 39.3 39.3 39.2 39.2 39.1 39.1 39.0 39.0 39.0 38.9 39.7 39.3 38.8 38.8 38.8 38.7 38.7 38.6 38.3 37.8 37.3 NaN NaN
NaN NaN NaN NaN NaN NaN NaN NaN NaN NaN NaN NaN NaN NaN NaN NaN NaN NaN NaN NaN NaN NaN NaN NaN NaN NaN NaN NaN NaN NaN NaN NaN NaN 38.6 41.2 41.8 41.7 41.7 41.7 41.6 41.6 41.6 41.5 41.4 41.4 41.3 41.1 41.2 41.1 40.8 40.5 40.5 40.2 39.4 39.4 39.5 39.8 40.0 40.4 40.6 40.8 40.8 40.8 40.8 40.8 40.8 40.8 40.9 40.8 40.8 40.8 40.7 40.7 40.6 40.6 40.5 40.5 40.4 40.4 40.3 40.3 40.2 40.1 40.0 40.0 39.9 39.9 39.8 39.8 39.7 39.7 39.7 39.6 39.6 39.6 39.6 39.6 39.5 39.6 39.5 39.6 39.5 39.5 39.5 39.5 39.5 39.5 39.4 39.4 39.3 39.3 39.3 39.3 39.3 39.2 39.2 39.2 39.1 39.1 39.0 39.0 39.1 39.3 39.7 38.9 38.8 38.7 38.7 38.9 38.6 38.5 38.0 37.5 37.0 NaN NaN
NaN NaN NaN NaN NaN NaN NaN NaN NaN NaN NaN NaN NaN NaN NaN NaN NaN NaN NaN NaN NaN NaN NaN NaN NaN NaN NaN NaN NaN NaN NaN NaN 37.4 40.0 42.4 41.8 41.7 41.7 41.6 41.6 41.6 41.5 41.5 41.4 41.4 41.2 41.1 41.1 40.9 40.8 40.7 40.2 39.9 39.4 39.5 39.8 40.0 40.2 40.5 40.8 40.8 40.8 40.9 40.8 40.8 40.8 40.9 40.9 40.8 40.7 40.6 40.6 40.6 40.5 40.5 40.4 40.4 40.3 40.2 40.2 40.2 40.3 40.1 40.0 40.0 39.9 39.8 39.8 39.7 39.7 39.6 39.6 39.6 39.6 39.5 39.6 39.5 39.5 39.5 39.5 39.5 39.5 39.5 39.5 39.4 39.4 39.4 39.4 39.4 39.3 39.2 39.2 39.2 39.2 39.2 39.1 39.1 39.1 39.1 39.0 38.9 39.0 39.6 38.9 38.8 38.8 38.7 38.7 38.6 38.6 38.2 37.7 37.2 NaN NaN NaN
NaN NaN NaN NaN NaN NaN NaN NaN NaN NaN NaN NaN NaN NaN NaN NaN NaN NaN NaN NaN NaN NaN NaN NaN NaN NaN NaN NaN NaN NaN NaN NaN 38.8 41.5 41.7 41.7 41.7 41.6 41.6 41.6 41.6 41.6 41.5 41.3 41.3 41.1 41.0 41.0 40.8 40.6 40.3 39.9 39.5 39.4 39.8 39.9 40.2 40.4 40.6 40.8 40.8 40.8 40.8 40.8 40.8 40.8 40.9 40.8 40.7 40.7 40.7 40.7 40.6 40.5 40.5 40.4 40.4 40.3 40.3 40.3 40.3 40.2 40.6 40.1 40.0 39.9 39.9 39.8 39.8 39.7 39.6 39.6 39.5 39.6 39.5 39.5 39.5 39.5 39.4 39.4 39.4 39.4 39.4 39.4 39.3 39.4 39.3 39.3 39.3 39.2 39.2 39.2 39.2 39.1 39.1 39.1 39.1 39.0 39.0 38.9 38.9 39.8 39.2 38.9 38.8 38.7 38.7 38.6 38.6 38.4 37.9 37.5 NaN NaN NaN NaN
NaN NaN NaN NaN NaN NaN NaN NaN NaN NaN NaN NaN NaN NaN NaN NaN NaN NaN NaN NaN NaN NaN NaN NaN NaN NaN NaN NaN NaN NaN NaN 37.5 40.3 42.2 41.8 41.6 41.6 41.6 41.6 41.5 41.5 41.5 41.4 41.3 41.1 41.0 41.1 40.8 40.4 40.1 40.0 39.6 39.5 39.4 39.8 40.0 40.3 40.5 40.7 40.8 40.8 40.8 40.8 40.8 40.8 40.8 40.8 40.8 40.7 40.7 40.7 40.7 40.6 40.6 40.5 40.3 40.3 40.2 40.2 40.3 40.2 40.2 40.9 40.1 40.0 40.0 39.9 39.8 39.8 39.7 39.7 39.6 39.6 39.5 39.5 39.5 39.4 39.5 39.4 39.4 39.3 39.3 39.3 39.3 39.3 39.3 39.3 39.3 39.2 39.2 39.2 39.2 39.1 39.1 39.1 39.1 39.0 39.0 39.0 39.0 39.3 39.7 39.0 38.8 38.8 38.7 38.7 38.6 38.6 38.1 37.7 37.2 NaN NaN NaN NaN
NaN NaN NaN NaN NaN NaN NaN NaN NaN NaN NaN NaN NaN NaN NaN NaN NaN NaN NaN NaN NaN NaN NaN NaN NaN NaN NaN NaN NaN NaN NaN 39.0 41.8 41.7 41.7 41.6 41.6 41.6 41.6 41.5 41.5 41.4 41.3 41.2 41.0 41.2 41.0 40.7 40.4 40.0 39.9 39.5 39.5 39.5 39.9 40.1 40.4 40.7 40.8 40.8 40.8 40.8 40.8 40.8 40.8 40.8 40.8 40.8 40.7 40.7 40.7 40.7 40.6 40.5 40.5 40.3 40.2 40.2 40.3 40.3 40.2 40.2 40.2 40.0 40.0 39.9 39.8 39.8 39.7 39.7 39.7 39.6 39.6 39.6 39.5 39.5 39.4 39.4 39.3 39.3 39.3 39.2 39.2 39.2 39.2 39.2 39.2 39.2 39.1 39.2 39.1 39.1 39.1 39.1 39.0 39.0 39.0 39.0 39.0 39.0 39.7 39.3 38.8 38.8 38.7 38.7 38.7 38.6 38.3 37.8 37.4 NaN NaN NaN NaN NaN
NaN NaN NaN NaN NaN NaN NaN NaN NaN NaN NaN NaN NaN NaN NaN NaN NaN NaN NaN NaN NaN NaN NaN NaN NaN NaN NaN NaN NaN NaN 37.7 40.5 41.7 41.7 41.7 41.6 41.6 41.6 41.5 41.5 41.4 41.4 41.3 41.1 41.2 41.1 40.7 40.5 40.0 40.0 39.5 39.5 39.3 39.8 40.0 40.3 40.6 40.7 40.8 40.8 40.8 40.8 40.8 40.8 40.8 40.8 40.7 40.7 40.7 40.7 40.7 40.7 40.7 40.6 40.5 40.4 40.3 40.3 40.3 40.2 40.2 40.1 40.0 40.0 39.9 39.8 39.7 39.7 39.8 39.7 39.6 39.6 39.6 39.6 39.5 39.5 39.4 39.4 39.3 39.3 39.2 39.2 39.1 39.1 39.1 39.1 39.1 39.1 39.1 39.0 39.1 39.0 39.0 39.0 38.9 38.9 38.9 38.9 38.9 39.6 39.7 38.9 38.8 38.8 38.7 38.6 38.6 38.5 38.0 37.6 37.1 NaN NaN NaN NaN NaN
NaN NaN NaN NaN NaN NaN NaN NaN NaN NaN NaN NaN NaN NaN NaN NaN NaN NaN NaN NaN NaN NaN NaN NaN NaN NaN NaN NaN NaN NaN 39.2 42.1 41.7 41.6 41.6 41.6 41.6 41.5 41.5 41.5 41.4 41.3 41.2 41.1 41.3 41.0 40.6 40.3 40.0 39.6 39.4 39.4 39.8 39.9 40.2 40.4 40.7 40.8 40.8 40.8 40.8 40.8 40.9 40.9 40.8 40.7 40.7 40.7 40.7 40.8 40.8 40.8 40.8 40.7 40.5 40.4 40.4 40.2 40.2 40.1 40.1 40.1 40.0 39.9 39.8 39.8 39.7 39.7 39.7 39.6 39.6 39.6 39.6 39.5 39.5 39.4 39.4 39.4 39.3 39.2 39.2 39.2 39.1 39.1 39.1 39.0 39.0 39.0 39.0 39.0 39.0 39.0 38.9 38.9 38.9 38.9 38.9 38.9 39.0 39.7 39.0 38.8 38.8 38.7 38.7 38.6 38.6 38.2 37.8 37.3 NaN NaN NaN NaN NaN NaN
NaN NaN NaN NaN NaN NaN NaN NaN NaN NaN NaN NaN NaN NaN NaN NaN NaN NaN NaN NaN NaN NaN NaN NaN NaN NaN NaN NaN NaN 37.9 40.8 41.9 41.7 41.7 41.6 41.6 41.6 41.5 41.5 41.5 41.4 41.2 41.3 41.4 41.2 40.9 40.4 40.0 39.8 39.5 39.6 39.7 39.8 40.1 40.3 40.6 40.8 40.8 40.8 40.8 40.8 40.8 40.8 40.8 40.7 40.7 40.7 40.7 40.7 40.8 40.9 40.9 40.8 40.6 40.6 40.5 40.4 40.3 40.2 40.1 40.2 40.2 40.1 40.0 39.8 39.8 39.7 39.6 39.6 39.7 39.7 39.5 39.6 39.5 39.5 39.4 39.4 39.3 39.3 39.2 39.2 39.1 39.1 39.1 39.0 39.0 39.0 39.0 38.9 39.0 38.9 38.9 38.9 38.9 38.9 38.9 38.9 38.8 39.5 39.6 38.9 38.8 38.7 38.7 38.6 38.6 38.4 38.0 37.5 37.1 NaN NaN NaN NaN NaN NaN
NaN NaN NaN NaN NaN NaN NaN NaN NaN NaN NaN NaN NaN NaN NaN NaN NaN NaN NaN NaN NaN NaN NaN NaN NaN NaN NaN NaN NaN 39.5 42.4 41.7 41.7 41.6 41.6 41.6 41.5 41.5 41.5 41.4 41.3 41.2 41.2 41.1 40.8 40.6 40.1 39.6 39.6 39.6 39.7 39.8 40.0 40.3 40.5 40.8 40.8 40.7 40.7 40.7 40.8 40.8 40.8 40.7 40.8 40.7 40.7 40.8 40.8 40.8 40.9 41.1 41.0 40.8 40.8 40.7 40.6 40.6 40.5 40.4 40.2 40.1 40.0 40.0 39.8 39.8 39.8 39.7 39.7 39.7 39.7 39.7 39.7 39.7 39.5 39.4 39.3 39.3 39.3 39.3 39.2 39.2 39.1 39.1 39.0 39.0 38.9 39.0 38.9 38.9 38.8 38.8 38.8 38.9 38.8 38.8 38.8 39.2 39.5 39.0 38.8 38.8 38.7 38.6 38.6 38.6 38.2 37.7 37.3 NaN NaN NaN NaN NaN NaN NaN
NaN NaN NaN NaN NaN NaN NaN NaN NaN NaN NaN NaN NaN NaN NaN NaN NaN NaN NaN NaN NaN NaN NaN NaN NaN NaN NaN NaN 38.1 41.1 41.9 41.7 41.6 41.7 41.6 41.6 41.5 41.5 41.5 41.3 41.2 41.0 41.1 40.9 40.7 40.4 40.0 39.5 39.5 39.5 39.6 39.9 40.1 40.4 40.7 40.7 40.8 40.7 40.7 40.7 40.7 40.7 40.7 40.7 40.7 40.7 40.8 40.8 40.8 40.8 41.0 41.1 41.3 41.2 41.3 41.2 41.3 41.2 41.0 40.7 40.5 40.2 40.0 39.9 39.9 39.8 39.8 39.7 39.7 39.7 39.7 39.8 39.9 39.9 39.7 39.6 39.4 39.3 39.3 39.2 39.2 39.2 39.1 39.1 39.0 39.0 38.9 38.9 38.8 38.9 38.8 38.8 38.8 38.8 38.8 38.8 38.9 39.8 39.1 38.8 38.8 38.7 38.6 38.6 38.5 38.3 37.9 37.5 37.0 NaN NaN NaN NaN NaN NaN NaN
NaN NaN NaN NaN NaN NaN NaN NaN NaN NaN NaN NaN NaN NaN NaN NaN NaN NaN NaN NaN NaN NaN NaN NaN NaN NaN NaN NaN 39.8 42.5 41.7 41.7 41.6 41.5 41.6 41.5 41.5 41.5 41.4 41.3 41.2 41.2 41.3 40.8 40.5 40.3 39.9 39.5 39.4 39.5 39.8 40.1 40.3 40.5 40.8 40.7 40.7 40.7 40.7 40.6 40.6 40.6 40.6 40.7 40.7 40.7 40.8 40.9 40.9 40.8 41.0 41.4 41.7 41.6 41.8 41.8 41.9 41.8 41.5 41.3 40.9 40.5 40.2 39.9 39.9 39.8 39.8 39.7 39.6 39.8 39.8 40.1 40.3 40.3 40.2 39.8 39.5 39.3 39.3 39.2 39.2 39.1 39.1 39.0 39.0 39.0 38.9 38.8 38.8 38.8 38.7 38.8 38.8 38.8 38.8 38.8 39.4 39.6 38.9 38.8 38.7 38.7 38.6 38.6 38.9 38.1 37.7 37.2 NaN NaN NaN NaN NaN NaN NaN NaN
NaN NaN NaN NaN NaN NaN NaN NaN NaN NaN NaN NaN NaN NaN NaN NaN NaN NaN NaN NaN NaN NaN NaN NaN NaN NaN NaN 38.5 41.4 41.7 41.6 41.6 41.6 41.6 41.5 41.5 41.5 41.4 41.3 41.2 41.0 41.3 41.0 40.6 40.2 39.9 39.5 39.5 39.5 39.7 39.9 40.2 40.4 40.7 40.7 40.8 40.7 40.7 40.6 40.6 40.6 40.6 40.6 40.6 40.7 40.7 40.7 40.9 40.9 41.0 41.3 41.6 41.8 41.8 41.8 41.8 41.8 41.8 41.8 41.8 41.3 40.8 40.3 39.9 39.9 39.8 39.7 39.7 39.7 39.9 40.3 40.4 40.3 40.4 40.3 40.2 39.9 39.4 39.2 39.2 39.1 39.1 39.1 39.0 39.0 38.9 38.9 38.8 38.7 38.7 38.7 38.7 38.7 38.7 38.8 38.8 39.7 39.0 38.8 38.8 38.7 38.6 38.6 38.5 38.3 37.8 37.4 NaN NaN NaN NaN NaN NaN NaN NaN NaN
NaN NaN NaN NaN NaN NaN NaN NaN NaN NaN NaN NaN NaN NaN NaN NaN NaN NaN NaN NaN NaN NaN NaN NaN NaN NaN 37.4 40.1 42.3 41.7 41.6 41.6 41.6 41.5 41.5 41.6 41.4 41.4 41.2 41.1 41.2 41.1 40.8 40.4 40.2 39.8 39.5 39.5 39.8 39.8 40.1 40.3 40.6 40.8 40.8 40.7 40.7 40.6 40.6 40.6 40.6 40.6 40.6 40.6 40.6 40.6 40.7 40.9 40.9 41.1 41.6 42.0 42.0 41.8 41.6 41.5 41.3 41.3 41.5 41.8 41.6 41.1 40.5 40.0 39.8 39.8 39.8 39.7 39.7 40.1 40.4 40.3 40.0 40.0 40.0 40.2 40.1 39.7 39.3 39.1 39.1 39.1 39.0 39.0 38.9 38.9 38.8 38.7 38.7 38.7 38.6 38.6 38.7 38.8 38.9 39.4 39.4 38.8 38.8 38.8 38.7 38.6 38.5 38.4 38.0 37.6 37.2 NaN NaN NaN NaN NaN NaN NaN NaN NaN
NaN NaN NaN NaN NaN NaN NaN NaN NaN NaN NaN NaN NaN NaN NaN NaN NaN NaN NaN NaN NaN NaN NaN NaN NaN NaN 38.9 41.7 41.7 41.6 41.6 41.6 41.5 41.5 41.5 41.5 41.4 41.3 41.2 41.0 41.1 41.0 40.5 40.1 40.1 39.5 39.4 39.6 39.8 40.0 40.2 40.4 40.8 40.7 40.8 40.7 40.7 40.7 40.6 40.6 40.6 40.6 40.6 40.6 40.5 40.6 40.6 40.8 41.0 41.4 42.0 42.1 41.8 41.5 41.2 40.9 40.7 40.8 41.0 41.4 41.7 41.3 40.7 40.2 39.9 39.7 39.7 39.7 39.8 40.2 40.4 39.9 39.6 39.4 39.5 39.9 39.9 39.8 39.5 39.2 39.1 39.1 39.0 39.0 38.9 38.8 38.8 38.7 38.6 38.6 38.6 38.6 38.7 38.9 39.3 39.7 38.9 38.8 38.8 38.6 38.6 38.5 38.5 38.2 37.8 37.3 NaN NaN NaN NaN NaN NaN NaN NaN NaN NaN
NaN NaN NaN NaN NaN NaN NaN NaN NaN NaN NaN NaN NaN NaN NaN NaN NaN NaN NaN NaN NaN NaN NaN NaN NaN 37.8 40.4 42.1 41.7 41.6 41.6 41.6 41.5 41.5 41.4 41.4 41.3 41.2 41.1 41.2 41.0 40.7 40.3 39.8 39.6 39.5 39.5 39.7 39.9 40.1 40.3 40.6 40.7 40.8 40.7 40.7 40.6 40.6 40.6 40.6 40.6 40.6 40.6 40.6 40.5 40.5 40.6 40.8 41.1 41.7 42.0 42.0 41.6 41.1 40.7 40.4 40.3 40.3 40.7 41.2 41.6 41.5 40.9 40.3 39.9 39.8 39.8 39.7 39.8 40.3 40.4 39.8 39.4 39.3 39.3 39.6 39.7 39.6 39.5 39.3 39.2 39.1 39.0 39.0 38.9 38.7 38.7 38.6 38.6 38.6 38.5 38.6 38.9 39.0 39.5 39.0 38.8 38.7 38.7 38.7 38.6 38.6 38.4 37.9 37.5 37.1 NaN NaN NaN NaN NaN NaN NaN NaN NaN NaN
NaN NaN NaN NaN NaN NaN NaN NaN NaN NaN NaN NaN NaN NaN NaN NaN NaN NaN NaN NaN NaN NaN NaN NaN NaN 39.3 41.9 41.7 41.6 41.6 41.6 41.6 41.5 41.5 41.5 41.3 41.2 41.1 41.2 41.3 41.0 40.6 40.2 39.5 39.5 39.4 39.4 39.8 40.0 40.3 40.5 40.7 40.7 40.7 40.7 40.6 40.6 40.6 40.6 40.6 40.5 40.6 40.6 40.6 40.5 40.6 40.6 40.7 41.2 41.9 42.0 41.8 41.3 40.7 40.3 40.0 39.9 40.1 40.6 40.9 41.6 41.6 40.9 40.3 39.9 39.7 39.7 39.6 39.7 40.1 40.3 40.1 39.8 39.5 39.5 39.6 39.6 39.6 39.4 39.4 39.2 39.2 39.1 39.1 38.8 38.7 38.7 38.6 38.5 38.5 38.6 38.9 38.9 39.3 38.9 38.9 38.8 38.8 38.6 38.6 38.6 39.0 38.1 37.7 37.3 NaN NaN NaN NaN NaN NaN NaN NaN NaN NaN NaN
NaN NaN NaN NaN NaN NaN NaN NaN NaN NaN NaN NaN NaN NaN NaN NaN NaN NaN NaN NaN NaN NaN NaN NaN 38.2 40.7 41.9 41.7 41.7 41.6 41.5 41.5 41.5 41.5 41.4 41.3 41.2 41.0 41.2 41.1 40.9 40.6 39.9 39.4 39.4 39.4 39.8 39.9 40.2 40.4 40.6 40.7 40.7 40.7 40.7 40.6 40.6 40.6 40.6 40.6 40.5 40.6 40.6 40.6 40.5 40.4 40.6 40.7 41.2 41.8 42.0 41.7 41.2 40.6 40.2 39.9 39.8 40.0 40.3 40.9 41.5 41.5 40.9 40.2 39.8 39.7 39.7 39.5 39.6 39.9 40.2 40.2 40.1 39.9 39.7 39.6 39.5 39.4 39.5 39.2 39.1 39.0 39.0 38.9 38.7 38.6 38.6 38.6 38.5 38.5 38.7 38.9 39.1 39.5 38.9 38.8 38.7 38.6 38.6 38.5 39.1 38.3 37.9 37.5 37.1 NaN NaN NaN NaN NaN NaN NaN NaN NaN NaN NaN
NaN NaN NaN NaN NaN NaN NaN NaN NaN NaN NaN NaN NaN NaN NaN NaN NaN NaN NaN NaN NaN NaN NaN 37.2 39.6 42.1 41.6 41.6 41.6 41.6 41.5 41.5 41.5 41.4 41.3 41.2 41.1 41.1 41.2 41.0 40.5 40.4 39.9 39.5 39.4 39.6 39.8 40.1 40.3 40.6 40.8 40.8 40.7 40.7 40.7 40.6 40.6 40.5 40.5 40.5 40.5 40.5 40.5 40.5 40.4 40.4 40.5 40.6 41.2 41.9 42.0 41.7 41.2 40.6 40.2 39.8 39.8 40.0 40.4 41.0 41.4 41.2 40.7 40.1 39.7 39.6 39.7 39.6 39.5 39.7 39.9 40.0 40.1 39.8 39.7 39.6 39.5 39.4 39.4 39.3 39.1 39.1 39.0 38.8 38.7 38.6 38.6 38.6 38.5 38.6 38.8 38.9 39.6 38.9 38.8 38.8 38.7 38.6 38.5 38.9 38.5 38.1 37.7 37.2 NaN NaN NaN NaN NaN NaN NaN NaN NaN NaN NaN NaN
NaN NaN NaN NaN NaN NaN NaN NaN NaN NaN NaN NaN NaN NaN NaN NaN NaN NaN NaN NaN NaN NaN NaN 38.6 41.0 41.7 41.6 41.6 41.6 41.5 41.5 41.5 41.5 41.4 41.3 41.1 41.0 41.3 41.2 40.9 40.6 40.2 39.6 39.4 39.4 39.8 40.0 40.2 40.5 40.7 40.7 40.7 40.7 40.7 40.6 40.6 40.6 40.5 40.5 40.5 40.5 40.5 40.4 40.4 40.4 40.4 40.4 40.6 40.8 41.5 41.8 41.7 41.4 40.9 40.5 40.1 40.0 40.2 40.6 41.1 41.3 41.0 40.4 40.0 39.7 39.6 39.6 39.4 39.4 39.4 39.5 39.7 39.7 39.7 39.7 39.5 39.5 39.4 39.3 39.3 39.3 38.9 38.9 38.7 38.6 38.6 38.6 38.5 38.6 38.7 38.9 39.2 39.7 39.0 38.8 38.7 38.6 38.5 38.5 39.0 38.2 37.8 37.4 37.0 NaN NaN NaN NaN NaN NaN NaN NaN NaN NaN NaN NaN
NaN NaN NaN NaN NaN NaN NaN NaN NaN NaN NaN NaN NaN NaN NaN NaN NaN NaN NaN NaN NaN NaN 37.7 40.0 42.3 41.6 41.7 41.6 41.6 41.5 41.5 41.4 41.4 41.4 41.2 41.1 41.3 41.2 40.8 40.6 40.3 40.0 39.6 39.5 39.4 39.9 40.1 40.4 40.6 40.7 40.7 40.7 40.6 40.7 40.6 40.6 40.5 40.5 40.5 40.4 40.4 40.4 40.4 40.3 40.4 40.3 40.4 40.4 40.8 41.3 41.8 41.7 41.6 41.1 40.7 40.3 40.4 40.5 40.8 41.1 41.1 40.8 40.3 40.0 39.7 39.6 39.6 39.4 39.3 39.4 39.3 39.4 39.4 39.4 39.5 39.4 39.3 39.3 39.2 39.2 39.0 38.9 38.7 38.6 38.6 38.6 38.5 38.5 38.7 38.8 38.9 39.7 39.5 38.8 38.8 38.6 38.6 38.6 39.0 38.4 38.0 37.6 37.2 NaN NaN NaN NaN NaN NaN NaN NaN NaN NaN NaN NaN NaN
NaN NaN NaN NaN NaN NaN NaN NaN NaN NaN NaN NaN NaN NaN NaN NaN NaN NaN NaN NaN NaN NaN 39.0 41.3 41.7 41.6 41.5 41.6 41.6 41.5 41.4 41.4 41.4 41.3 41.1 41.0 41.1 40.8 40.8 40.3 40.3 40.1 39.4 39.4 39.8 40.0 40.3 40.5 40.7 40.7 40.7 40.7 40.7 40.6 40.6 40.6 40.5 40.4 40.4 40.4 40.4 40.4 40.3 40.3 40.3 40.3 40.3 40.4 40.6 41.0 41.4 41.7 41.8 41.4 41.1 40.8 40.8 40.9 41.1 41.0 40.9 40.7 40.3 39.9 39.8 39.6 39.5 39.4 39.3 39.3 39.3 39.3 39.3 39.2 39.2 39.2 39.1 39.1 39.0 38.9 39.0 38.8 38.7 38.6 38.6 38.5 38.4 38.5 38.7 38.9 39.6 39.4 38.8 38.8 38.7 38.6 38.6 38.8 39.0 38.2 37.8 37.4 NaN NaN NaN NaN NaN NaN NaN NaN NaN NaN NaN NaN NaN NaN
NaN NaN NaN NaN NaN NaN NaN NaN NaN NaN NaN NaN NaN NaN NaN NaN NaN NaN NaN NaN NaN 38.1 40.3 42.3 41.6 41.5 41.6 41.5 41.5 41.5 41.4 41.4 41.3 41.2 41.1 41.1 41.0 40.9 40.6 40.3 40.1 39.5 39.3 39.7 39.9 40.2 40.4 40.6 40.7 40.7 40.7 40.7 40.7 40.7 40.6 40.5 40.5 40.4 40.4 40.4 40.4 40.4 40.3 40.3 40.3 40.2 40.3 40.3 40.4 40.8 41.1 41.6 41.7 41.7 41.5 41.2 41.2 41.2 41.1 41.0 40.9 40.5 40.3 40.1 39.8 39.5 39.4 39.4 39.3 39.2 39.2 39.2 39.1 39.2 39.1 39.1 39.1 39.0 39.0 38.9 38.8 38.8 38.7 38.6 38.6 38.5 38.5 38.6 38.8 39.1 39.6 38.9 38.8 38.8 38.7 38.6 38.5 39.0 38.3 37.9 37.5 37.2 NaN NaN NaN NaN NaN NaN NaN NaN NaN NaN NaN NaN NaN NaN
NaN NaN NaN NaN NaN NaN NaN NaN NaN NaN NaN NaN NaN NaN NaN NaN NaN NaN NaN NaN 37.2 39.3 41.5 41.6 41.5 41.5 41.5 41.5 41.5 41.4 41.4 41.3 41.2 41.1 41.1 41.0 40.8 40.6 39.7 39.4 39.5 39.5 39.5 39.8 40.0 40.3 40.5 40.8 40.7 40.7 40.7 40.7 40.6 40.6 40.6 40.5 40.4 40.4 40.4 40.4 40.3 40.3 40.3 40.2 40.3 40.2 40.2 40.3 40.3 40.5 40.8 41.2 41.4 41.5 41.5 41.3 41.2 41.1 41.1 40.9 40.6 40.5 40.3 40.0 39.7 39.5 39.4 39.4 39.4 39.3 39.2 39.2 39.1 39.1 39.0 39.0 39.0 39.0 38.9 38.8 38.7 38.7 38.6 38.6 38.5 38.5 38.5 38.7 38.9 39.6 38.9 38.8 38.7 38.7 38.6 38.6 38.7 39.0 38.1 37.7 37.3 NaN NaN NaN NaN NaN NaN NaN NaN NaN NaN NaN NaN NaN NaN NaN
NaN NaN NaN NaN NaN NaN NaN NaN NaN NaN NaN NaN NaN NaN NaN NaN NaN NaN NaN NaN 38.5 40.5 41.9 41.5 41.6 41.6 41.5 41.5 41.5 41.5 41.4 41.3 41.2 41.2 41.1 40.8 40.6 40.1 39.5 39.5 39.4 39.4 39.8 40.0 40.2 40.4 40.7 40.7 40.7 40.7 40.7 40.6 40.6 40.6 40.5 40.4 40.4 40.4 40.3 40.3 40.3 40.3 40.3 40.2 40.2 40.2 40.2 40.2 40.2 40.3 40.5 40.7 41.0 41.1 41.4 41.3 41.1 40.9 40.8 40.7 40.5 40.2 40.1 40.0 39.7 39.6 39.5 39.4 39.3 39.2 39.2 39.2 39.1 39.1 39.0 39.0 38.9 38.9 38.8 38.8 38.7 38.7 38.7 38.6 38.5 38.5 38.6 38.8 39.5 39.4 38.8 38.8 38.7 38.7 38.6 38.6 39.0 38.3 37.9 37.5 37.1 NaN NaN NaN NaN NaN NaN NaN NaN NaN NaN NaN NaN NaN NaN NaN
NaN NaN NaN NaN NaN NaN NaN NaN NaN NaN NaN NaN NaN NaN NaN NaN NaN NaN NaN 37.7 39.7 41.7 41.6 41.5 41.5 41.5 41.5 41.5 41.5 41.4 41.3 41.2 41.0 41.1 40.9 40.7 40.4 40.0 39.5 39.4 39.4 39.5 39.9 40.1 40.4 40.6 40.7 40.7 40.7 40.6 40.6 40.7 40.6 40.5 40.5 40.4 40.4 40.3 40.3 40.3 40.3 40.3 40.2 40.2 40.2 40.2 40.1 40.1 40.1 40.2 40.2 40.4 40.5 40.7 40.8 40.9 40.8 40.8 40.7 40.5 40.4 40.1 40.1 39.9 39.7 39.5 39.4 39.4 39.3 39.2 39.1 39.1 39.1 39.1 39.0 39.0 38.9 38.9 38.8 38.7 38.7 38.7 38.6 38.6 38.5 38.6 38.8 39.2 39.8 39.0 38.8 38.8 38.6 38.6 38.5 39.0 38.4 38.0 37.7 37.3 NaN NaN NaN NaN NaN NaN NaN NaN NaN NaN NaN NaN NaN NaN NaN NaN
NaN NaN NaN NaN NaN NaN NaN NaN NaN NaN NaN NaN NaN NaN NaN NaN NaN NaN NaN 38.9 40.8 41.7 41.6 41.5 41.5 41.5 41.5 41.5 41.4 41.3 41.2 41.1 41.2 41.2 40.9 40.7 40.1 39.9 39.5 39.4 39.5 39.8 40.0 40.2 40.5 40.7 40.7 40.8 40.7 40.7 40.6 40.6 40.6 40.5 40.5 40.4 40.3 40.3 40.3 40.3 40.3 40.2 40.2 40.2 40.1 40.1 40.1 40.1 40.1 40.1 40.1 40.2 40.2 40.2 40.4 40.4 40.3 40.4 40.3 40.3 40.3 40.2 40.0 39.9 39.7 39.5 39.4 39.3 39.2 39.1 39.1 39.1 39.1 39.0 39.0 39.0 38.9 38.8 38.8 38.7 38.6 38.6 38.6 38.5 38.5 38.7 38.9 39.5 39.4 38.8 38.8 38.7 38.6 38.5 38.7 39.1 38.2 37.8 37.4 37.1 NaN NaN NaN NaN NaN NaN NaN NaN NaN NaN NaN NaN NaN NaN NaN NaN
NaN NaN NaN NaN NaN NaN NaN NaN NaN NaN NaN NaN NaN NaN NaN NaN NaN NaN 38.1 40.0 41.9 41.6 41.5 41.5 41.5 41.4 41.4 41.4 41.4 41.3 41.2 41.1 41.2 41.1 40.7 40.2 39.7 39.6 39.4 39.4 39.7 39.9 40.2 40.4 40.6 40.8 40.8 40.7 40.7 40.7 40.6 40.6 40.6 40.5 40.5 40.4 40.3 40.3 40.2 40.2 40.2 40.2 40.2 40.1 40.1 40.1 40.0 40.1 40.0 40.0 40.0 39.9 39.9 40.0 40.1 40.1 40.0 40.1 40.0 40.0 40.0 40.0 39.9 39.7 39.6 39.6 39.4 39.3 39.2 39.2 39.1 39.1 39.0 39.0 39.0 38.9 38.8 38.8 38.7 38.7 38.6 38.6 38.5 38.5 38.6 38.8 38.9 39.5 38.8 38.8 38.7 38.6 38.6 38.5 39.0 38.3 38.0 37.6 37.2 NaN NaN NaN NaN NaN NaN NaN NaN NaN NaN NaN NaN NaN NaN NaN NaN NaN
NaN NaN NaN NaN NaN NaN NaN NaN NaN NaN NaN NaN NaN NaN NaN NaN NaN 37.5 39.2 41.0 41.6 41.5 41.5 41.5 41.5 41.4 41.4 41.4 41.3 41.3 41.1 41.1 41.3 41.0 40.6 40.1 39.6 39.4 39.4 39.4 39.8 40.1 40.3 40.6 40.7 40.8 40.8 40.7 40.7 40.7 40.6 40.6 40.6 40.6 40.5 40.4 40.4 40.3 40.2 40.2 40.2 40.2 40.2 40.1 40.1 40.1 40.0 40.0 40.0 39.9 39.9 39.8 39.8 40.0 39.8 39.9 39.9 39.9 39.8 39.8 39.8 39.9 39.8 39.6 39.6 39.5 39.3 39.3 39.2 39.2 39.1 39.1 39.0 39.0 38.9 38.9 38.8 38.8 38.7 38.6 38.6 38.6 38.5 38.6 38.7 38.9 39.6 39.4 38.8 38.8 38.7 38.6 38.6 38.8 39.0 38.1 37.8 37.4 37.0 NaN NaN NaN NaN NaN NaN NaN NaN NaN NaN NaN NaN NaN NaN NaN NaN NaN
NaN NaN NaN NaN NaN NaN NaN NaN NaN NaN NaN NaN NaN NaN NaN NaN NaN 38.5 40.3 42.0 41.5 41.6 41.5 41.5 41.4 41.4 41.4 41.3 41.3 41.2 41.1 41.1 41.2 40.7 40.4 39.9 39.5 39.4 39.4 39.7 40.0 40.2 40.4 40.7 40.7 40.8 40.7 40.7 40.7 40.7 40.6 40.6 40.6 40.5 40.4 40.4 40.4 40.3 40.2 40.2 40.2 40.1 40.2 40.1 40.1 40.0 40.0 39.9 39.9 39.9 39.8 39.8 39.8 39.7 39.8 39.7 39.8 39.8 39.6 39.7 39.6 39.7 39.7 39.6 39.4 39.5 39.4 39.3 39.2 39.2 39.1 39.0 39.0 39.0 38.9 38.8 38.8 38.7 38.7 38.6 38.5 38.5 38.5 38.7 38.9 39.3 39.5 39.0 38.8 38.7 38.6 38.5 38.6 39.0 38.3 37.9 37.6 37.2 NaN NaN NaN NaN NaN NaN NaN NaN NaN NaN NaN NaN NaN NaN NaN NaN NaN NaN
NaN NaN NaN NaN NaN NaN NaN NaN NaN NaN NaN NaN NaN NaN NaN NaN 37.9 39.5 41.2 41.6 41.6 41.5 41.5 41.5 41.4 41.4 41.4 41.3 41.2 41.1 41.2 41.1 40.7 40.4 39.8 39.6 39.4 39.4 39.5 39.9 40.1 40.3 40.6 40.7 40.8 40.8 40.7 40.7 40.7 40.7 40.7 40.6 40.6 40.5 40.4 40.4 40.4 40.3 40.2 40.2 40.2 40.2 40.1 40.1 40.1 40.0 40.0 39.9 39.9 39.9 39.8 39.8 39.8 39.7 39.7 39.7 39.7 39.6 39.6 39.6 39.5 39.6 39.6 39.6 39.4 39.4 39.3 39.3 39.1 39.1 39.0 39.0 39.0 38.9 38.8 38.7 38.7 38.7 38.6 38.6 38.5 38.5 38.6 38.8 39.0 39.6 38.9 38.8 38.8 38.6 38.5 38.5 38.9 39.1 38.1 37.7 37.4 NaN NaN NaN NaN NaN NaN NaN NaN NaN NaN NaN NaN NaN NaN NaN NaN NaN NaN NaN
NaN NaN NaN NaN NaN NaN NaN NaN NaN NaN NaN NaN NaN NaN NaN 37.4 38.9 40.5 42.2 41.6 41.5 41.5 41.5 41.4 41.3 41.3 41.3 41.2 41.1 41.2 41.1 40.9 40.7 40.2 40.1 39.2 39.4 39.4 39.8 40.0 40.2 40.4 40.7 40.7 40.8 40.7 40.7 40.7 40.7 40.7 40.7 40.7 40.6 40.5 40.5 40.4 40.4 40.3 40.2 40.2 40.1 40.1 40.1 40.1 40.0 40.0 39.9 39.9 39.8 39.8 39.8 39.7 39.7 39.7 39.6 39.6 39.5 39.5 39.5 39.5 39.4 39.5 39.4 39.4 39.3 39.3 39.2 39.2 39.1 39.1 39.0 39.0 38.9 38.8 38.8 38.7 38.7 38.6 38.6 38.6 38.5 38.5 38.7 38.8 39.7 39.3 38.8 38.8 38.7 38.7 38.5 38.6 39.0 38.2 37.9 37.5 37.2 NaN NaN NaN NaN NaN NaN NaN NaN NaN NaN NaN NaN NaN NaN NaN NaN NaN NaN NaN
NaN NaN NaN NaN NaN NaN NaN NaN NaN NaN NaN NaN NaN NaN NaN 38.3 39.9 41.4 41.6 41.6 41.5 41.5 41.4 41.4 41.3 41.3 41.2 41.1 41.0 41.1 40.9 40.9 41.0 40.2 39.5 39.4 39.4 39.7 39.9 40.1 40.4 40.6 40.7 40.8 40.7 40.7 40.7 40.7 40.7 40.6 40.7 40.7 40.7 40.6 40.5 40.4 40.3 40.3 40.2 40.2 40.1 40.1 40.0 40.0 40.0 39.9 39.9 39.9 39.8 39.8 39.8 39.7 39.7 39.6 39.6 39.5 39.5 39.4 39.5 39.5 39.4 39.4 39.4 39.3 39.3 39.2 39.2 39.1 39.0 39.1 39.0 38.9 38.9 38.8 38.7 38.7 38.6 38.6 38.6 38.5 38.5 38.7 38.8 39.0 39.6 38.9 38.8 38.7 38.6 38.5 38.5 39.0 38.4 38.0 37.7 37.3 NaN NaN NaN NaN NaN NaN NaN NaN NaN NaN NaN NaN NaN NaN NaN NaN NaN NaN NaN NaN
NaN NaN NaN NaN NaN NaN NaN NaN NaN NaN NaN NaN NaN NaN 37.9 39.3 40.8 42.2 41.5 41.5 41.5 41.4 41.4 41.4 41.3 41.3 41.2 41.1 41.2 41.0 40.8 40.5 40.5 40.0 39.4 39.4 39.5 39.8 40.1 40.3 40.5 40.7 40.8 40.8 40.7 40.7 40.7 40.7 40.7 40.6 40.7 40.7 40.7 40.7 40.5 40.4 40.3 40.3 40.2 40.2 40.1 40.0 40.0 40.0 40.0 39.9 39.9 39.8 39.8 39.8 39.7 39.7 39.6 39.6 39.5 39.5 39.4 39.4 39.4 39.4 39.3 39.3 39.3 39.3 39.2 39.2 39.1 39.1 39.1 39.0 38.9 38.9 38.8 38.7 38.7 38.7 38.6 38.6 38.5 38.5 38.6 38.8 39.0 39.7 39.4 38.8 38.7 38.6 38.6 38.5 38.7 39.1 38.2 37.8 37.5 37.1 NaN NaN NaN NaN NaN NaN NaN NaN NaN NaN NaN NaN NaN NaN NaN NaN NaN NaN NaN NaN
NaN NaN NaN NaN NaN NaN NaN NaN NaN NaN NaN NaN NaN 37.4 38.8 40.2 41.6 41.6 41.5 41.5 41.5 41.4 41.4 41.4 41.3 41.2 41.1 41.0 41.2 40.8 40.7 40.3 40.2 39.5 39.4 39.3 39.7 40.0 40.1 40.4 40.6 40.7 40.8 40.7 40.7 40.7 40.7 40.7 40.6 40.6 40.7 40.8 40.8 40.7 40.5 40.4 40.3 40.2 40.2 40.2 40.1 40.1 40.0 39.9 39.9 39.9 39.8 39.8 39.7 39.7 39.7 39.6 39.6 39.5 39.5 39.4 39.4 39.4 39.3 39.3 39.3 39.3 39.2 39.2 39.2 39.1 39.1 39.1 39.0 39.0 38.9 38.8 38.8 38.7 38.7 38.6 38.6 38.5 38.5 38.5 38.7 38.9 39.3 39.4 38.8 38.8 38.7 38.6 38.5 38.6 39.0 38.3 38.0 37.6 37.3 NaN NaN NaN NaN NaN NaN NaN NaN NaN NaN NaN NaN NaN NaN NaN NaN NaN NaN NaN NaN NaN
NaN NaN NaN NaN NaN NaN NaN NaN NaN NaN NaN NaN 37.1 38.3 39.6 41.0 41.8 41.6 41.5 41.5 41.4 41.4 41.4 41.4 41.2 41.2 41.0 41.1 40.9 40.8 40.5 40.2 39.6 39.3 39.4 39.6 39.9 40.0 40.3 40.5 40.7 40.8 40.7 40.7 40.7 40.7 40.7 40.6 40.6 40.7 40.7 40.9 40.8 40.7 40.6 40.4 40.3 40.2 40.2 40.1 40.0 40.0 40.0 40.0 39.9 39.8 39.8 39.8 39.8 39.7 39.6 39.6 39.5 39.5 39.5 39.4 39.4 39.3 39.3 39.3 39.3 39.3 39.2 39.2 39.1 39.1 39.1 39.0 39.0 38.9 38.8 38.8 38.8 38.7 38.7 38.6 38.6 38.5 38.5 38.6 38.8 39.0 39.8 39.0 38.8 38.7 38.6 38.6 38.5 39.0 39.1 38.1 37.8 37.4 37.1 NaN NaN NaN NaN NaN NaN NaN NaN NaN NaN NaN NaN NaN NaN NaN NaN NaN NaN NaN NaN NaN
NaN NaN NaN NaN NaN NaN NaN NaN NaN NaN NaN NaN 37.9 39.2 40.4 41.7 41.6 41.6 41.5 41.5 41.4 41.4 41.3 41.3 41.2 41.1 41.1 41.1 40.9 40.6 40.4 40.2 39.5 39.4 39.3 39.8 40.0 40.2 40.5 40.7 40.7 40.7 40.7 40.7 40.7 40.6 40.6 40.6 40.6 40.6 40.8 40.9 40.9 40.9 40.6 40.4 40.3 40.2 40.1 40.1 40.0 40.0 39.9 39.9 39.8 39.8 39.8 39.7 39.7 39.7 39.6 39.6 39.5 39.5 39.4 39.4 39.4 39.3 39.3 39.3 39.2 39.2 39.2 39.1 39.1 39.0 39.0 39.0 38.9 38.9 38.8 38.8 38.7 38.7 38.6 38.6 38.5 38.5 38.6 38.7 38.9 39.5 39.2 38.8 38.8 38.7 38.6 38.5 38.5 39.0 38.2 37.9 37.6 37.2 NaN NaN NaN NaN NaN NaN NaN NaN NaN NaN NaN NaN NaN NaN NaN NaN NaN NaN NaN NaN NaN NaN
NaN NaN NaN NaN NaN NaN NaN NaN NaN NaN NaN 37.6 38.8 39.9 41.2 41.6 41.6 41.5 41.5 41.5 41.4 41.3 41.3 41.3 41.1 41.0 41.1 40.9 40.6 40.6 40.1 40.0 39.4 39.4 39.7 39.9 40.1 40.4 40.6 40.7 40.7 40.7 40.7 40.7 40.7 40.6 40.6 40.6 40.6 40.5 40.8 40.9 41.0 41.0 40.7 40.5 40.3 40.2 40.1 40.1 40.0 40.0 39.9 39.9 39.8 39.8 39.8 39.7 39.7 39.6 39.6 39.6 39.5 39.4 39.4 39.4 39.4 39.3 39.3 39.3 39.2 39.2 39.1 39.1 39.0 39.0 39.0 39.0 38.9 38.9 38.8 38.8 38.7 38.7 38.6 38.6 38.5 38.5 38.7 38.8 39.3 39.6 39.1 38.7 38.7 38.6 38.5 38.5 39.7 38.4 38.1 37.7 37.4 37.1 NaN NaN NaN NaN NaN NaN NaN NaN NaN NaN NaN NaN NaN NaN NaN NaN NaN NaN NaN NaN NaN NaN
NaN NaN NaN NaN NaN NaN NaN NaN NaN NaN 37.4 38.4 39.5 40.7 41.9 41.6 41.6 41.5 41.5 41.4 41.4 41.3 41.3 41.2 41.1 41.1 41.2 40.9 40.6 40.1 40.0 39.6 39.4 39.3 39.8 40.0 40.3 40.5 40.8 40.7 40.7 40.7 40.6 40.6 40.6 40.6 40.6 40.5 40.5 40.5 40.8 41.0 41.1 41.1 40.9 40.7 40.3 40.2 40.1 40.0 40.0 39.9 39.9 39.8 39.8 39.8 39.7 39.7 39.7 39.6 39.6 39.6 39.5 39.4 39.4 39.3 39.3 39.3 39.3 39.2 39.2 39.1 39.1 39.0 39.0 39.0 39.0 38.9 38.9 38.9 38.8 38.8 38.7 38.7 38.6 38.6 38.5 38.6 38.8 38.9 39.6 39.5 38.8 38.7 38.7 38.6 38.5 38.5 39.1 38.2 37.9 37.5 37.2 NaN NaN NaN NaN NaN NaN NaN NaN NaN NaN NaN NaN NaN NaN NaN NaN NaN NaN NaN NaN NaN NaN NaN
NaN NaN NaN NaN NaN NaN NaN NaN NaN 37.2 38.2 39.2 40.2 41.3 41.6 41.6 41.5 41.5 41.4 41.4 41.3 41.3 41.3 41.1 41.0 41.3 40.7 40.6 40.2 40.0 39.5 39.4 39.4 39.7 39.9 40.2 40.4 40.7 40.7 40.8 40.7 40.7 40.7 40.6 40.6 40.6 40.6 40.5 40.5 40.6 40.9 41.1 41.3 41.3 41.1 40.8 40.6 40.3 40.1 40.0 40.0 39.9 39.9 39.8 39.8 39.7 39.7 39.7 39.6 39.6 39.7 40.4 39.5 39.4 39.4 39.3 39.3 39.3 39.2 39.2 39.2 39.1 39.1 39.1 39.0 39.0 38.9 38.9 38.8 38.8 38.8 38.7 38.7 38.7 38.6 38.5 38.5 38.7 38.8 39.5 39.5 38.8 38.7 38.7 38.6 38.6 38.5 39.0 38.3 38.0 37.7 37.4 37.0 NaN NaN NaN NaN NaN NaN NaN NaN NaN NaN NaN NaN NaN NaN NaN NaN NaN NaN NaN NaN NaN NaN NaN
NaN NaN NaN NaN NaN NaN NaN NaN 37.1 38.0 38.9 39.9 40.9 42.0 41.6 41.5 41.5 41.5 41.4 41.4 41.4 41.3 41.1 41.0 41.0 41.0 40.6 40.4 39.9 40.1 39.4 39.4 39.5 39.9 40.1 40.4 40.6 40.8 40.7 40.8 40.7 40.7 40.6 40.6 40.6 40.5 40.5 40.5 40.5 40.7 41.1 41.3 41.5 41.4 41.4 41.2 40.8 40.5 40.1 40.0 39.9 39.9 39.8 39.8 39.8 39.7 39.6 39.6 39.6 39.6 40.2 40.2 39.4 39.4 39.4 39.3 39.3 39.2 39.2 39.2 39.1 39.1 39.1 39.0 39.0 38.9 38.9 38.9 38.8 38.8 38.7 38.7 38.7 38.6 38.5 38.5 38.6 38.8 39.7 39.6 39.0 38.8 38.7 38.6 38.6 38.5 39.1 38.7 38.1 37.8 37.5 37.2 NaN NaN NaN NaN NaN NaN NaN NaN NaN NaN NaN NaN NaN NaN NaN NaN NaN NaN NaN NaN NaN NaN NaN NaN
NaN NaN NaN NaN NaN NaN NaN 37.1 37.9 38.7 39.6 40.5 41.5 41.6 41.6 41.5 41.5 41.4 41.4 41.4 41.3 41.2 41.1 40.9 40.9 40.7 40.7 40.4 40.1 39.4 39.4 39.4 39.8 40.0 40.3 40.5 40.7 40.7 40.8 40.7 40.7 40.7 40.6 40.6 40.5 40.5 40.5 40.4 40.6 40.9 41.3 41.5 41.4 41.3 41.3 41.3 41.0 40.5 40.1 40.0 39.9 39.8 39.8 39.8 39.7 39.7 39.6 39.6 39.6 39.6 39.5 39.5 39.4 39.4 39.3 39.3 39.2 39.2 39.2 39.1 39.1 39.0 39.0 39.0 39.0 38.9 38.9 38.8 38.8 38.8 38.7 38.7 38.6 38.6 38.5 38.6 38.7 38.8 39.6 39.3 38.8 38.7 38.7 38.5 38.6 38.5 39.0 38.3 38.0 37.6 37.3 37.0 NaN NaN NaN NaN NaN NaN NaN NaN NaN NaN NaN NaN NaN NaN NaN NaN NaN NaN NaN NaN NaN NaN NaN NaN
NaN NaN NaN NaN NaN NaN 37.1 37.8 38.6 39.4 40.2 41.1 42.1 41.6 41.5 41.5 41.5 41.5 41.4 41.3 41.3 41.2 41.0 40.9 40.7 40.7 40.6 40.2 40.2 39.4 39.4 39.7 39.9 40.2 40.4 40.7 40.8 40.8 40.7 40.7 40.7 40.6 40.6 40.6 40.5 40.5 40.4 40.5 40.7 41.1 41.4 41.3 40.9 40.8 40.8 41.1 41.1 40.6 40.2 40.0 39.9 39.8 39.8 39.7 39.7 39.6 39.6 39.6 39.5 39.5 39.4 39.4 39.4 39.3 39.3 39.2 39.2 39.2 39.1 39.1 39.0 39.0 39.0 39.0 38.9 38.9 38.8 38.8 38.8 38.7 38.7 38.7 38.6 38.6 38.5 38.7 38.8 39.3 39.3 38.8 38.7 38.7 38.6 38.5 38.5 39.0 38.6 38.1 37.8 37.5 37.1 NaN NaN NaN NaN NaN NaN NaN NaN NaN NaN NaN NaN NaN NaN NaN NaN NaN NaN NaN NaN NaN NaN NaN NaN NaN
NaN NaN NaN NaN NaN 37.3 37.8 38.5 39.2 40.0 40.8 41.6 41.6 41.6 41.5 41.5 41.5 41.4 41.4 41.3 41.2 41.1 41.1 40.9 40.7 40.3 40.1 39.7 39.4 39.4 39.4 39.8 40.1 40.3 40.6 40.8 40.8 40.8 40.7 40.7 40.7 40.6 40.6 40.5 40.5 40.4 40.4 40.4 40.7 41.2 41.4 40.8 40.4 40.3 40.4 40.8 41.1 40.7 40.2 39.9 39.8 39.8 39.7 39.7 39.6 39.6 39.6 39.5 39.5 39.4 39.4 39.4 39.3 39.3 39.3 39.2 39.2 39.2 39.1 39.0 39.0 39.0 38.9 38.9 38.9 38.9 38.8 38.8 38.8 38.7 38.8 38.7 38.6 38.5 38.6 38.8 39.0 39.8 38.9 38.8 38.7 38.6 38.5 38.5 38.6 38.8 38.2 37.9 37.6 37.3 NaN NaN NaN NaN NaN NaN NaN NaN NaN NaN NaN NaN NaN NaN NaN NaN NaN NaN NaN NaN NaN NaN NaN NaN NaN NaN
NaN NaN NaN NaN 37.4 37.9 38.5 39.1 39.8 40.5 41.3 42.1 41.6 41.6 41.6 41.4 41.5 41.6 41.3 41.3 41.2 41.0 41.1 40.9 40.5 40.3 40.1 39.5 39.4 39.4 39.7 40.0 40.2 40.5 40.7 40.8 40.8 40.7 40.7 40.7 40.6 40.6 40.5 40.5 40.4 40.4 40.4 40.4 40.7 41.3 41.2 40.5 40.1 40.0 40.2 40.8 41.1 40.6 40.2 39.9 39.8 39.8 39.7 39.7 39.6 39.6 39.5 39.4 39.4 39.4 39.4 39.3 39.3 39.3 39.2 39.2 39.2 39.1 39.1 39.1 39.0 39.0 38.9 38.9 38.9 38.8 38.8 38.8 38.7 38.7 38.7 38.6 38.5 38.6 38.7 38.9 39.4 39.7 38.8 38.7 38.7 38.6 38.5 38.5 39.1 38.3 38.0 37.7 37.4 37.1 NaN NaN NaN NaN NaN NaN NaN NaN NaN NaN NaN NaN NaN NaN NaN NaN NaN NaN NaN NaN NaN NaN NaN NaN NaN NaN
NaN 37.0 37.3 37.7 38.1 38.6 39.1 39.7 40.3 41.0 41.7 41.6 41.6 41.6 41.5 41.5 41.5 41.5 41.3 41.3 41.1 41.1 41.1 40.8 40.3 40.1 40.3 39.4 39.4 39.6 39.9 40.1 40.4 40.7 40.8 40.8 40.8 40.7 40.7 40.6 40.6 40.6 40.5 40.4 40.4 40.3 40.3 40.3 40.7 41.2 41.2 40.6 40.2 40.1 40.4 40.8 40.9 40.6 40.2 40.0 39.8 39.8 39.7 39.6 39.7 39.5 39.5 39.4 39.4 39.4 39.3 39.3 39.3 39.2 39.2 39.2 39.1 39.1 39.1 39.0 39.0 38.9 38.9 38.9 38.8 38.8 38.8 38.7 38.7 38.7 38.6 38.5 38.6 38.7 38.8 39.2 39.7 38.9 38.8 38.7 38.6 38.5 38.4 38.9 38.4 38.2 37.9 37.6 37.3 NaN NaN NaN NaN NaN NaN NaN NaN NaN NaN NaN NaN NaN NaN NaN NaN NaN NaN NaN NaN NaN NaN NaN NaN NaN NaN NaN
37.5 37.7 38.0 38.3 38.7 39.2 39.6 40.2 40.8 41.4 41.7 41.6 41.6 41.6 41.5 41.5 41.4 41.4 41.3 41.2 41.0 41.1 41.0 40.7 40.2 39.7 39.7 39.4 39.5 39.8 40.0 40.3 40.6 40.8 40.8 40.8 40.7 40.7 40.7 40.6 40.6 40.6 40.5 40.4 40.4 40.3 40.3 40.3 40.6 41.1 41.3 41.0 40.6 40.5 40.7 40.9 40.6 40.6 40.3 40.0 39.8 39.7 39.6 39.6 39.5 39.5 39.4 39.4 39.4 39.3 39.3 39.3 39.2 39.2 39.2 39.1 39.1 39.1 39.0 39.0 38.9 38.9 38.9 38.8 38.8 38.8 38.7 38.7 38.8 38.6 38.5 38.5 38.6 38.7 39.0 39.8 38.9 38.7 38.7 38.7 38.6 38.5 38.5 38.4 38.3 38.0 37.7 37.4 37.1 NaN NaN NaN NaN NaN NaN NaN NaN NaN NaN NaN NaN NaN NaN NaN NaN NaN NaN NaN NaN NaN NaN NaN NaN NaN NaN NaN
38.2 38.4 38.6 38.9 39.3 39.7 40.1 40.6 41.2 41.8 41.6 41.7 41.6 41.6 41.5 41.5 41.4 41.3 41.2 41.1 41.2 41.2 40.7 40.6 40.4 39.3 39.5 39.4 39.6 39.9 40.2 40.5 40.7 40.8 40.8 40.8 40.7 40.7 40.7 40.6 40.6 40.6 40.5 40.4 40.4 40.3 40.2 40.3 40.5 41.0 41.2 41.3 40.9 40.7 40.6 40.6 40.6 40.3 40.3 40.0 39.8 39.7 39.6 39.5 39.5 39.4 39.4 39.4 39.3 39.3 39.3 39.2 39.2 39.2 39.2 39.1 39.1 39.0 39.0 39.0 38.9 38.9 38.9 38.8 38.8 38.8 38.7 38.7 38.6 38.5 38.5 38.5 38.7 38.8 39.5 39.3 38.8 38.7 38.7 38.6 38.5 38.5 39.0 38.4 38.1 37.8 37.5 37.2 NaN NaN NaN NaN NaN NaN NaN NaN NaN NaN NaN NaN NaN NaN NaN NaN NaN NaN NaN NaN NaN NaN NaN NaN NaN NaN NaN NaN
38.8 39.0 39.2 39.5 39.8 40.2 40.6 41.0 41.6 41.7 41.7 41.7 41.6 41.5 41.5 41.5 41.4 41.3 41.3 41.1 41.1 41.0 40.5 40.5 40.3 39.4 39.4 39.3 39.8 40.1 40.3 40.6 40.8 40.8 40.8 40.7 40.7 40.7 40.7 40.6 40.6 40.5 40.5 40.4 40.3 40.2 40.2 40.2 40.4 40.7 41.0 41.1 40.7 40.6 40.6 40.4 40.4 40.1 40.0 39.9 39.8 39.6 39.6 39.5 39.5 39.4 39.3 39.3 39.3 39.3 39.3 39.2 39.2 39.1 39.1 39.1 39.0 39.0 39.0 38.9 38.9 38.9 38.8 38.8 38.8 38.7 38.7 38.6 38.5 38.5 38.5 38.7 38.8 39.2 39.5 38.9 38.7 38.7 38.6 38.5 38.5 38.7 38.4 38.2 37.9 37.7 37.4 37.1 NaN NaN NaN NaN NaN NaN NaN NaN NaN NaN NaN NaN NaN NaN NaN NaN NaN NaN NaN NaN NaN NaN NaN NaN NaN NaN NaN NaN
39.4 39.6 39.7 40.0 40.2 40.6 41.0 41.4 41.9 41.7 41.7 41.6 41.6 41.6 41.5 41.5 41.4 41.3 41.4 41.5 41.1 40.8 40.3 40.3 40.0 39.5 39.6 39.7 39.9 40.2 40.5 40.7 40.8 40.8 40.8 40.8 40.7 40.7 40.6 40.6 40.6 40.5 40.5 40.4 40.3 40.2 40.2 40.2 40.3 40.6 40.8 40.9 40.5 40.3 40.3 40.2 40.1 40.0 39.8 39.8 39.7 39.6 39.5 39.4 39.4 39.4 39.3 39.3 39.3 39.3 39.2 39.2 39.1 39.1 39.1 39.1 39.0 39.0 38.9 38.9 38.9 38.8 38.8 38.7 38.7 38.6 38.6 38.6 38.5 38.5 38.6 38.8 39.1 39.6 39.2 38.8 38.7 38.7 38.5 38.4 38.6 38.6 38.3 38.1 37.8 37.5 37.2 NaN NaN NaN NaN NaN NaN NaN NaN NaN NaN NaN NaN NaN NaN NaN NaN NaN NaN NaN NaN NaN NaN NaN NaN NaN NaN NaN NaN NaN
40.0 40.1 40.2 40.4 40.6 40.9 41.3 41.7 41.8 41.7 41.7 41.6 41.6 41.6 41.5 41.5 41.3 41.4 41.6 41.4 40.9 40.9 40.3 39.7 39.5 39.4 39.5 39.9 40.1 40.4 40.7 40.8 40.8 40.8 40.8 40.7 40.7 40.6 40.6 40.6 40.5 40.5 40.4 40.4 40.3 40.2 40.2 40.1 40.2 40.3 40.4 40.3 40.3 40.2 40.1 40.1 39.9 39.9 39.7 39.7 39.6 39.6 39.5 39.4 39.4 39.4 39.3 39.3 39.3 39.2 39.2 39.2 39.1 39.1 39.1 39.0 39.0 38.9 38.9 38.9 38.9 38.8 38.8 38.7 38.6 38.6 38.6 38.5 38.5 38.6 38.8 38.9 39.6 39.2 38.8 38.8 38.7 38.6 38.5 38.4 39.0 38.3 38.2 37.9 37.6 37.3 37.1 NaN NaN NaN NaN NaN NaN NaN NaN NaN NaN NaN NaN NaN NaN NaN NaN NaN NaN NaN NaN NaN NaN NaN NaN NaN NaN NaN NaN NaN
40.5 40.5 40.6 40.8 41.0 41.2 41.6 41.9 41.8 41.7 41.8 41.6 41.6 41.6 41.5 41.4 41.3 41.4 40.9 40.8 40.0 40.8 40.4 39.5 39.4 39.4 39.7 40.0 40.3 40.5 40.8 40.8 40.8 40.8 40.7 40.7 40.7 40.6 40.6 40.6 40.5 40.4 40.4 40.3 40.3 40.2 40.1 40.1 40.1 40.1 40.2 40.1 40.0 40.1 40.0 39.9 39.9 39.8 39.7 39.6 39.6 39.6 39.5 39.4 39.4 39.4 39.3 39.3 39.2 39.2 39.2 39.2 39.1 39.1 39.0 39.0 38.9 38.9 38.9 38.8 38.8 38.8 38.7 38.7 38.6 38.6 38.5 38.5 38.6 38.7 38.9 39.3 39.6 39.1 38.7 38.7 38.6 38.6 38.5 38.9 38.4 38.3 38.0 37.7 37.5 37.2 NaN NaN NaN NaN NaN NaN NaN NaN NaN NaN NaN NaN NaN NaN NaN NaN NaN NaN NaN NaN NaN NaN NaN NaN NaN NaN NaN NaN NaN NaN
40.9 40.9 41.0 41.1 41.3 41.5 41.8 41.8 41.8 41.7 41.7 41.6 41.6 41.6 41.6 41.4 41.2 41.3 41.1 40.7 40.3 40.3 39.8 39.4 39.3 39.6 39.9 40.2 40.4 40.7 40.8 40.8 40.8 40.8 40.7 40.7 40.6 40.6 40.5 40.5 40.4 40.4 40.3 40.3 40.2 40.2 40.1 40.1 40.0 40.0 40.0 39.9 39.8 40.0 40.0 39.8 39.8 39.7 39.7 39.6 39.5 39.5 39.4 39.4 39.4 39.3 39.3 39.2 39.2 39.2 39.2 39.2 39.1 39.0 39.0 39.0 38.9 38.8 38.8 38.8 38.7 38.7 38.7 38.6 38.6 38.5 38.5 38.6 38.7 38.8 39.0 39.7 38.9 38.7 38.7 38.7 38.5 38.5 38.7 38.6 38.4 38.1 37.9 37.6 37.3 37.0 NaN NaN NaN NaN NaN NaN NaN NaN NaN NaN NaN NaN NaN NaN NaN NaN NaN NaN NaN NaN NaN NaN NaN NaN NaN NaN NaN NaN NaN NaN
41.3 41.3 41.3 41.4 41.5 41.7 42.0 41.8 41.8 41.8 41.7 41.7 41.6 41.6 41.5 41.4 41.3 41.3 40.9 40.7 40.3 40.3 39.6 39.4 39.3 39.8 40.1 40.3 40.6 40.8 40.8 40.8 40.8 40.7 40.7 40.7 40.6 40.5 40.5 40.5 40.4 40.3 40.3 40.2 40.2 40.1 40.1 40.1 40.0 40.0 39.9 39.9 39.8 39.9 39.9 39.8 39.7 39.7 39.6 39.6 39.5 39.5 39.4 39.4 39.4 39.3 39.3 39.2 39.2 39.2 39.1 39.1 39.1 39.0 38.9 38.9 38.9 38.8 38.8 38.8 38.7 38.7 38.7 38.6 38.5 38.5 38.6 38.7 38.8 39.1 39.7 39.0 38.8 38.7 38.7 38.5 38.5 38.5 39.1 38.3 38.2 38.0 37.7 37.4 37.2 NaN NaN NaN NaN NaN NaN NaN NaN NaN NaN NaN NaN NaN NaN NaN NaN NaN NaN NaN NaN NaN NaN NaN NaN NaN NaN NaN NaN NaN NaN NaN
41.6 41.5 41.5 41.6 41.7 41.9 41.9 41.9 41.8 41.8 41.7 41.7 41.7 41.6 41.5 41.3 41.4 41.0 40.8 40.5 40.2 40.1 39.5 39.4 39.7 40.0 40.2 40.5 40.7 40.8 40.8 40.8 40.7 40.7 40.7 40.6 40.5 40.5 40.4 40.4 40.4 40.3 40.2 40.2 40.2 40.1 40.1 40.0 40.0 39.9 39.9 39.9 39.8 39.8 39.8 39.7 39.6 39.6 39.6 39.6 39.5 39.5 39.4 39.4 39.3 39.3 39.3 39.2 39.2 39.2 39.1 39.1 39.0 38.9 38.9 38.9 38.8 38.8 38.7 38.7 38.7 38.6 38.6 38.5 38.5 38.6 38.7 38.8 38.9 39.5 39.4 38.8 38.7 38.7 38.6 38.5 38.5 39.1 38.4 38.3 38.1 37.8 37.6 37.3 37.0 NaN NaN NaN NaN NaN NaN NaN NaN NaN NaN NaN NaN NaN NaN NaN NaN NaN NaN NaN NaN NaN NaN NaN NaN NaN NaN NaN NaN NaN NaN NaN
41.8 41.8 41.7 41.8 41.8 42.0 41.9 41.9 41.8 41.8 41.9 41.8 41.7 41.6 41.5 41.5 41.5 40.9 41.0 40.7 40.6 40.2 39.9 39.6 39.8 40.1 40.4 40.7 40.8 40.8 40.8 40.7 40.7 40.7 40.6 40.6 40.5 40.4 40.4 40.5 40.3 40.3 40.2 40.2 40.1 40.1 40.1 40.0 40.0 39.9 39.9 39.8 39.8 39.7 39.7 39.7 39.6 39.6 39.6 39.5 39.5 39.4 39.4 39.4 39.3 39.3 39.2 39.2 39.2 39.1 39.1 39.0 39.0 38.9 38.8 38.8 38.8 38.8 38.7 38.7 38.6 38.6 38.6 38.6 38.7 38.8 38.9 38.9 39.4 39.6 38.9 38.8 38.7 38.7 38.6 38.5 38.7 38.7 38.3 38.2 37.9 37.7 37.4 37.2 NaN NaN NaN NaN NaN NaN NaN NaN NaN NaN NaN NaN NaN NaN NaN NaN NaN NaN NaN NaN NaN NaN NaN NaN NaN NaN NaN NaN NaN NaN NaN NaN
42.0 41.9 41.9 41.9 41.9 41.9 41.9 41.9 41.8 41.8 41.8 41.8 41.7 41.7 41.6 41.3 41.3 41.3 41.2 40.8 40.8 40.0 39.4 39.7 40.0 40.2 40.5 40.8 40.8 40.8 40.8 40.7 40.7 40.6 40.6 40.5 40.5 40.4 40.4 40.4 40.3 40.2 40.2 40.2 40.1 40.1 40.1 40.0 40.0 39.9 39.9 39.8 39.7 39.7 39.7 39.6 39.6 39.5 39.5 39.5 39.5 39.4 39.4 39.3 39.3 39.3 39.2 39.2 39.1 39.1 39.0 39.0 38.9 38.9 38.8 38.8 38.8 38.7 38.7 38.6 38.7 38.7 38.8 38.8 38.9 38.9 38.9 39.3 39.7 38.9 38.7 38.7 38.7 38.6 38.5 38.5 39.0 38.3 38.3 38.0 37.8 37.5 37.3 37.0 NaN NaN NaN NaN NaN NaN NaN NaN NaN NaN NaN NaN NaN NaN NaN NaN NaN NaN NaN NaN NaN NaN NaN NaN NaN NaN NaN NaN NaN NaN NaN NaN
42.2 42.1 42.0 41.9 41.9 41.9 41.9 41.9 41.8 41.8 41.8 41.7 41.8 42.5 42.2 41.6 41.4 41.3 41.0 40.6 40.8 39.9 39.6 39.9 40.2 40.4 40.7 40.8 40.8 40.8 40.8 40.7 40.7 40.6 40.5 40.5 40.5 40.4 40.4 40.3 40.2 40.2 40.2 40.1 40.1 40.1 40.0 40.0 40.0 39.9 39.8 39.8 39.7 39.7 39.6 39.6 39.6 39.5 39.5 39.5 39.4 39.4 39.4 39.3 39.2 39.2 39.2 39.1 39.1 39.0 39.0 38.9 38.9 38.9 38.8 38.8 38.7 38.7 38.7 38.7 38.8 38.9 39.0 39.0 39.0 39.1 39.7 39.6 39.1 38.8 38.7 38.7 38.6 38.5 38.5 39.0 38.5 38.3 38.1 37.9 37.7 37.4 37.1 NaN NaN NaN NaN NaN NaN NaN NaN NaN NaN NaN NaN NaN NaN NaN NaN NaN NaN NaN NaN NaN NaN NaN NaN NaN NaN NaN NaN NaN NaN NaN NaN NaN
42.3 42.2 42.1 42.0 41.9 41.9 41.8 41.8 41.8 41.8 41.8 41.8 41.7 42.2 42.6 42.5 42.0 41.5 41.2 40.8 41.3 40.0 39.9 40.1 40.4 40.6 40.8 40.8 40.8 40.8 40.7 40.7 40.7 40.6 40.5 40.5 40.4 40.4 40.3 40.3 40.2 40.2 40.1 40.1 40.1 40.0 40.0 40.0 39.9 39.8 39.8 39.7 39.7 39.7 39.6 39.6 39.5 39.5 39.5 39.4 39.4 39.4 39.3 39.3 39.2 39.2 39.1 39.1 39.0 39.0 39.0 38.9 38.8 38.8 38.8 38.8 38.8 38.8 38.9 38.9 39.0 39.1 39.1 39.0 39.6 39.8 39.9 39.0 38.8 38.8 38.7 38.6 38.6 38.5 39.0 38.7 38.3 38.2 37.9 37.7 37.4 37.2 37.0 NaN NaN NaN NaN NaN NaN NaN NaN NaN NaN NaN NaN NaN NaN NaN NaN NaN NaN NaN NaN NaN NaN NaN NaN NaN NaN NaN NaN NaN NaN NaN NaN NaN
42.4 42.2 42.1 41.9 42.0 41.9 41.8 41.8 41.8 41.8 41.7 41.7 41.7 41.7 41.7 42.3 42.3 42.2 41.8 41.1 41.1 40.4 40.2 40.4 40.6 40.8 40.9 40.9 40.8 40.7 40.7 40.7 40.6 40.5 40.5 40.4 40.4 40.3 40.3 40.2 40.2 40.1 40.1 40.1 40.1 40.0 40.0 40.0 39.9 39.9 39.8 39.8 39.7 39.6 39.6 39.6 39.5 39.5 39.4 39.4 39.4 39.3 39.3 39.2 39.2 39.1 39.1 39.0 39.0 38.9 38.9 38.8 38.9 38.9 39.0 39.0 39.1 39.1 39.1 39.4 39.6 39.6 39.9 39.7 39.6 39.0 38.9 38.8 38.8 38.7 38.6 38.6 38.5 38.7 39.0 38.3 38.4 38.0 37.7 37.4 37.1 NaN NaN NaN NaN NaN NaN NaN NaN NaN NaN NaN NaN NaN NaN NaN NaN NaN NaN NaN NaN NaN NaN NaN NaN NaN NaN NaN NaN NaN NaN NaN NaN NaN NaN NaN
42.4 42.3 42.1 41.8 42.0 42.0 41.8 41.8 41.7 41.7 41.7 41.7 41.6 41.6 41.6 41.5 41.5 41.9 42.2 42.0 41.1 40.7 40.6 40.7 40.8 41.0 40.9 40.9 40.8 40.7 40.7 40.6 40.6 40.5 40.5 40.4 40.3 40.3 40.2 40.2 40.1 40.1 40.1 40.1 40.0 40.0 40.0 39.9 39.8 39.8 39.8 39.7 39.7 39.6 39.6 39.5 39.5 39.5 39.4 39.4 39.3 39.3 39.2 39.2 39.2 39.1 39.0 39.0 38.9 38.9 39.0 39.0 39.1 39.2 39.3 39.3 39.2 39.6 40.0 39.9 39.9 39.7 39.2 39.3 38.9 38.9 38.8 38.8 38.7 38.6 38.6 38.5 39.0 39.1 38.4 38.5 38.2 37.8 37.4 37.1 NaN NaN NaN NaN NaN NaN NaN NaN NaN NaN NaN NaN NaN NaN NaN NaN NaN NaN NaN NaN NaN NaN NaN NaN NaN NaN NaN NaN NaN NaN NaN NaN NaN NaN NaN NaN
42.5 42.3 41.8 41.8 41.8 41.8 41.8 41.7 41.7 41.7 41.7 41.6 41.6 41.6 41.6 41.5 41.5 41.5 41.6 42.0 42.0 41.5 41.0 40.9 41.1 41.0 40.9 40.8 40.7 40.7 40.6 40.6 40.5 40.5 40.4 40.4 40.3 40.2 40.2 40.1 40.1 40.1 40.1 40.0 40.0 40.9 39.9 39.9 39.8 39.8 39.8 39.7 39.7 39.6 39.6 39.5 39.5 39.5 39.4 39.4 39.3 39.3 39.2 39.1 39.1 39.0 39.0 39.0 39.1 39.2 39.3 39.3 39.5 39.8 39.8 39.9 39.9 40.1 39.8 39.6 39.1 39.0 38.9 38.9 38.9 38.8 38.8 38.7 38.7 38.6 38.5 38.9 39.1 39.0 38.3 38.4 37.9 37.5 37.1 NaN NaN NaN NaN NaN NaN NaN NaN NaN NaN NaN NaN NaN NaN NaN NaN NaN NaN NaN NaN NaN NaN NaN NaN NaN NaN NaN NaN NaN NaN NaN NaN NaN NaN NaN NaN NaN
42.5 42.3 41.8 41.8 41.7 41.6 41.7 41.7 41.7 41.7 41.6 41.6 41.6 41.6 41.5 41.5 41.5 41.5 41.4 41.4 41.5 42.1 42.0 41.5 41.2 41.1 41.0 40.8 40.7 40.6 40.5 40.5 40.5 40.4 40.4 40.3 40.3 40.2 40.1 40.1 40.1 40.1 40.0 39.9 39.9 40.4 39.9 39.9 39.8 39.8 39.7 39.7 39.6 39.6 39.5 39.5 39.5 39.4 39.4 39.3 39.3 39.2 39.2 39.1 39.0 39.1 39.1 39.3 39.4 39.4 40.0 40.1 40.2 40.0 39.8 39.7 39.5 39.4 39.1 39.0 39.0 38.9 38.9 38.9 38.8 38.7 38.7 38.6 38.5 38.5 38.9 39.1 39.0 38.4 38.5 38.1 37.6 37.1 NaN NaN NaN NaN NaN NaN NaN NaN NaN NaN NaN NaN NaN NaN NaN NaN NaN NaN NaN NaN NaN NaN NaN NaN NaN NaN NaN NaN NaN NaN NaN NaN NaN NaN NaN NaN NaN NaN
42.4 41.9 41.9 41.7 41.7 41.7 41.6 41.5 41.6 41.5 42.0 42.2 41.8 41.5 41.5 41.4 41.4 41.4 41.4 41.4 41.3 41.3 41.8 42.1 42.1 41.6 41.1 40.9 40.8 40.7 40.6 40.5 40.4 40.4 40.3 40.3 40.2 40.2 40.1 40.1 40.0 40.0 40.0 39.9 39.9 39.9 39.8 39.8 39.8 39.7 39.7 39.7 39.6 39.6 39.5 39.5 39.4 39.4 39.3 39.3 39.3 39.2 39.1 39.1 39.2 39.3 39.4 39.5 40.3 40.1 39.8 39.9 40.0 39.3 39.2 39.1 39.1 39.0 39.0 38.9 38.9 38.8 38.8 38.8 38.7 38.7 38.6 38.6 38.6 39.1 39.1 39.0 38.4 38.4 38.3 37.7 37.2 NaN NaN NaN NaN NaN NaN NaN NaN NaN NaN NaN NaN NaN NaN NaN NaN NaN NaN NaN NaN NaN NaN NaN NaN NaN NaN NaN NaN NaN NaN NaN NaN NaN NaN NaN NaN NaN NaN NaN
42.3 41.8 41.8 41.7 41.7 41.6 41.6 41.6 41.5 41.5 42.4 42.2 42.3 41.6 41.4 41.4 41.5 41.3 41.3 41.3 41.3 41.3 41.2 41.3 41.6 42.0 42.0 41.9 41.1 40.9 40.7 40.5 40.4 40.4 40.3 40.2 40.2 40.1 40.1 40.0 40.0 40.0 39.9 39.9 39.8 39.8 39.8 39.7 39.7 39.7 39.7 39.6 39.6 39.6 39.5 39.5 39.4 39.4 39.3 39.3 39.2 39.2 39.2 39.3 39.4 39.6 40.0 40.2 39.7 39.4 39.3 39.2 39.2 39.2 39.1 39.1 39.0 39.0 38.9 38.9 38.8 38.8 38.7 38.7 38.7 38.7 38.6 39.2 39.2 39.2 39.1 38.5 38.4 38.4 37.9 37.4 NaN NaN NaN NaN NaN NaN NaN NaN NaN NaN NaN NaN NaN NaN NaN NaN NaN NaN NaN NaN NaN NaN NaN NaN NaN NaN NaN NaN NaN NaN NaN NaN NaN NaN NaN NaN NaN NaN NaN NaN
41.9 41.8 41.9 41.7 41.7 41.7 41.7 41.5 41.5 41.5 41.4 42.0 42.3 42.2 42.1 42.0 41.3 41.3 41.3 41.3 41.3 41.2 41.2 41.2 41.2 41.1 41.6 41.8 41.8 41.6 41.5 40.8 40.5 40.4 40.3 40.3 40.2 40.1 40.1 40.1 40.0 39.9 39.8 39.8 39.8 39.7 39.7 39.7 39.7 39.7 39.6 39.6 39.6 39.5 39.5 39.4 39.4 39.3 39.3 39.2 39.2 39.3 39.4 39.5 39.8 40.4 40.2 39.8 39.4 39.3 39.3 39.2 39.2 39.1 39.1 39.0 39.0 38.9 38.8 38.8 38.8 38.7 38.8 38.9 39.2 39.3 39.2 39.2 39.2 39.1 38.5 38.4 38.4 38.2 37.5 NaN NaN NaN NaN NaN NaN NaN NaN NaN NaN NaN NaN NaN NaN NaN NaN NaN NaN NaN NaN NaN NaN NaN NaN NaN NaN NaN NaN NaN NaN NaN NaN NaN NaN NaN NaN NaN NaN NaN NaN NaN
41.6 41.7 41.7 41.8 41.7 41.6 41.6 41.6 41.5 41.5 41.4 41.4 41.4 41.6 42.2 42.2 42.0 41.5 41.2 41.2 41.2 41.2 41.2 41.1 41.1 41.1 41.1 41.0 41.0 41.9 41.9 41.5 41.6 40.7 40.5 40.4 40.3 40.2 40.1 40.0 40.0 39.9 39.9 39.8 39.8 39.7 39.7 39.7 39.6 39.6 39.6 39.5 39.5 39.5 39.4 39.4 39.4 39.3 39.2 39.2 39.3 39.4 39.5 39.9 40.4 39.8 39.4 39.4 39.3 39.3 39.2 39.1 39.1 39.0 39.0 39.0 38.9 38.9 39.0 39.2 39.3 39.4 39.3 39.3 39.3 39.3 39.2 39.1 38.6 38.5 38.5 38.4 38.4 37.8 37.1 NaN NaN NaN NaN NaN NaN NaN NaN NaN NaN NaN NaN NaN NaN NaN NaN NaN NaN NaN NaN NaN NaN NaN NaN NaN NaN NaN NaN NaN NaN NaN NaN NaN NaN NaN NaN NaN NaN NaN NaN NaN
41.3 41.4 41.6 41.7 41.3 41.5 41.6 41.6 41.5 41.5 41.4 41.3 41.4 41.3 41.3 41.6 41.9 42.0 42.0 41.6 41.2 41.2 41.1 41.1 41.1 41.1 41.0 41.0 41.0 40.9 41.1 41.3 41.7 41.7 41.6 41.2 40.5 40.4 40.3 40.2 40.1 40.0 39.9 39.8 39.8 39.7 39.7 39.7 39.6 39.6 39.6 39.5 39.5 39.4 39.4 39.4 39.3 39.2 39.2 39.3 39.5 39.6 40.2 40.4 39.7 39.4 39.4 39.3 39.3 39.2 39.1 39.1 39.0 39.0 38.9 39.0 39.2 39.5 39.5 39.5 39.4 39.4 39.4 39.3 39.3 39.2 38.7 38.5 38.6 38.5 38.4 38.4 38.0 37.3 NaN NaN NaN NaN NaN NaN NaN NaN NaN NaN NaN NaN NaN NaN NaN NaN NaN NaN NaN NaN NaN NaN NaN NaN NaN NaN NaN NaN NaN NaN NaN NaN NaN NaN NaN NaN NaN NaN NaN NaN NaN NaN
41.1 41.2 41.3 41.4 41.5 41.5 41.6 41.6 41.5 41.5 41.4 41.4 41.3 41.3 41.2 41.2 41.2 41.9 42.0 42.1 41.8 41.1 41.0 41.0 41.0 41.0 40.9 40.9 41.0 40.9 40.9 40.8 40.8 40.8 41.6 42.0 41.3 41.4 41.1 40.6 40.4 40.3 40.2 40.0 39.9 39.8 39.8 39.7 39.5 39.5 39.4 39.5 39.4 39.4 39.4 39.3 39.2 39.2 39.3 39.5 39.6 40.1 40.4 39.9 39.4 39.4 39.3 39.2 39.1 39.1 39.1 39.0 39.2 39.4 39.6 39.7 39.6 39.5 39.5 39.5 39.4 39.2 39.0 38.9 38.7 38.6 38.6 38.7 38.5 38.4 38.4 38.4 37.6 NaN NaN NaN NaN NaN NaN NaN NaN NaN NaN NaN NaN NaN NaN NaN NaN NaN NaN NaN NaN NaN NaN NaN NaN NaN NaN NaN NaN NaN NaN NaN NaN NaN NaN NaN NaN NaN NaN NaN NaN NaN NaN NaN
40.8 40.9 41.1 41.2 41.3 41.4 41.5 41.5 41.5 41.5 41.4 41.4 41.3 41.3 41.2 41.1 41.2 41.1 41.1 41.9 42.0 41.8 41.7 41.0 40.9 41.0 40.9 40.9 40.8 40.8 40.8 40.8 40.7 40.7 40.7 40.7 40.6 41.1 41.5 41.4 41.4 41.0 41.0 41.0 40.2 40.1 40.0 39.9 39.8 39.7 39.6 39.5 39.4 39.4 39.3 39.3 39.3 39.3 39.5 39.6 40.2 40.5 40.0 39.5 39.4 39.3 39.2 39.2 39.1 39.1 39.6 39.9 39.6 39.6 39.6 39.6 39.5 39.5 39.5 39.1 38.8 38.7 38.7 38.7 38.7 38.6 38.7 38.5 38.8 38.5 38.5 37.9 37.1 NaN NaN NaN NaN NaN NaN NaN NaN NaN NaN NaN NaN NaN NaN NaN NaN NaN NaN NaN NaN NaN NaN NaN NaN NaN NaN NaN NaN NaN NaN NaN NaN NaN NaN NaN NaN NaN NaN NaN NaN NaN NaN NaN
40.6 40.7 40.8 40.9 41.1 41.2 41.3 41.4 41.4 41.5 41.4 41.4 41.3 41.3 41.2 41.2 41.1 41.1 41.0 41.0 41.5 41.6 41.8 41.7 41.9 41.4 40.8 40.9 40.8 40.8 40.8 40.7 40.7 40.7 40.7 40.6 40.6 40.6 40.5 40.5 40.7 40.4 41.1 41.2 40.2 40.9 40.9 40.7 40.7 40.2 39.9 39.8 39.7 39.6 39.6 39.6 39.5 39.5 39.6 39.7 40.5 40.0 39.5 39.4 39.4 39.2 39.2 39.1 39.3 39.8 39.9 39.7 39.6 39.6 39.5 39.5 39.5 39.0 38.8 38.9 38.8 38.9 38.7 38.6 38.6 38.6 38.7 38.7 38.5 38.4 38.2 37.4 NaN NaN NaN NaN NaN NaN NaN NaN NaN NaN NaN NaN NaN NaN NaN NaN NaN NaN NaN NaN NaN NaN NaN NaN NaN NaN NaN NaN NaN NaN NaN NaN NaN NaN NaN NaN NaN NaN NaN NaN NaN NaN NaN NaN
40.3 40.5 40.6 40.7 40.8 40.9 41.0 41.1 41.2 41.4 41.4 41.2 41.5 41.3 41.2 41.2 41.2 41.2 41.1 41.0 40.9 40.9 40.9 41.3 41.7 41.8 41.6 41.3 40.8 40.8 40.7 40.7 40.7 40.6 40.6 40.6 40.5 40.5 40.5 40.5 40.4 40.4 40.3 40.3 40.2 40.2 40.8 40.9 41.0 40.8 40.8 40.8 40.7 40.6 40.3 40.2 40.6 40.4 40.0 40.4 40.2 39.5 39.4 39.4 39.3 39.2 39.2 39.4 40.0 39.9 39.7 39.6 39.6 39.6 39.5 39.1 38.9 38.8 38.8 38.7 38.7 38.7 38.7 38.7 38.7 38.6 38.6 38.5 38.5 38.5 37.7 NaN NaN NaN NaN NaN NaN NaN NaN NaN NaN NaN NaN NaN NaN NaN NaN NaN NaN NaN NaN NaN NaN NaN NaN NaN NaN NaN NaN NaN NaN NaN NaN NaN NaN NaN NaN NaN NaN NaN NaN NaN NaN NaN NaN NaN
40.1 40.2 40.3 40.5 40.6 40.7 40.8 40.9 41.0 41.1 41.2 41.2 41.2 41.3 41.2 41.2 41.1 41.1 41.1 41.0 40.9 40.9 40.9 40.8 41.0 41.3 41.6 41.6 41.4 41.5 41.4 40.6 40.6 40.6 40.6 40.5 40.5 40.5 40.4 40.4 40.4 40.3 40.3 40.3 40.3 40.2 40.2 40.1 40.1 40.1 39.9 40.0 40.4 40.5 40.4 40.4 40.5 40.5 40.3 40.0 39.5 39.4 39.4 39.3 39.3 39.2 39.3 40.0 39.8 39.7 39.6 39.6 39.6 39.5 39.2 38.8 38.8 38.8 38.8 38.8 38.8 38.6 38.5 38.5 38.7 38.6 38.5 38.5 38.5 38.1 37.1 NaN NaN NaN NaN NaN NaN NaN NaN NaN NaN NaN NaN NaN NaN NaN NaN NaN NaN NaN NaN NaN NaN NaN NaN NaN NaN NaN NaN NaN NaN NaN NaN NaN NaN NaN NaN NaN NaN NaN NaN NaN NaN NaN NaN NaN
39.9 40.0 40.1 40.2 40.4 40.5 40.6 40.7 40.8 40.9 41.0 41.0 41.1 41.2 41.1 41.2 41.1 41.1 41.0 41.0 40.9 40.9 40.8 40.8 40.8 40.7 40.6 40.7 41.5 41.5 41.4 41.3 41.4 40.6 40.5 40.5 40.5 40.4 40.4 40.3 40.3 40.3 40.2 40.2 40.2 40.1 40.1 40.1 40.1 40.0 40.0 39.9 39.9 39.8 39.8 39.7 39.7 39.7 39.6 39.5 39.5 39.4 39.4 39.3 39.3 39.3 40.0 39.9 39.8 39.7 39.6 39.6 39.6 39.1 38.8 38.8 38.8 38.8 38.7 38.7 38.7 38.6 38.7 38.6 38.6 38.5 38.5 38.5 38.6 37.5 NaN NaN NaN NaN NaN NaN NaN NaN NaN NaN NaN NaN NaN NaN NaN NaN NaN NaN NaN NaN NaN NaN NaN NaN NaN NaN NaN NaN NaN NaN NaN NaN NaN NaN NaN NaN NaN NaN NaN NaN NaN NaN NaN NaN NaN NaN
39.6 39.8 39.9 40.0 40.1 40.3 40.4 40.5 40.6 40.7 40.8 40.8 40.9 41.0 41.0 41.0 41.1 41.1 41.0 41.0 40.9 40.9 40.8 40.8 40.8 40.6 40.7 40.6 40.6 40.5 40.6 41.0 41.5 41.4 41.3 41.2 41.1 40.9 40.4 40.3 40.3 40.2 40.2 40.2 40.1 40.1 40.1 40.0 40.0 40.0 39.9 39.8 39.8 39.8 39.8 39.7 39.7 39.6 39.6 39.5 39.5 39.4 39.3 39.3 39.2 40.0 39.9 39.8 39.7 39.7 39.7 39.6 39.0 38.9 38.8 38.8 38.8 38.8 38.7 38.7 38.8 38.6 38.8 38.7 38.7 38.7 38.6 38.6 37.9 NaN NaN NaN NaN NaN NaN NaN NaN NaN NaN NaN NaN NaN NaN NaN NaN NaN NaN NaN NaN NaN NaN NaN NaN NaN NaN NaN NaN NaN NaN NaN NaN NaN NaN NaN NaN NaN NaN NaN NaN NaN NaN NaN NaN NaN NaN NaN
39.4 39.5 39.7 39.8 39.9 40.1 40.2 40.3 40.4 40.5 40.6 40.7 40.7 40.8 40.9 40.9 40.9 41.0 40.9 41.0 40.9 40.9 40.8 40.8 40.8 40.8 40.6 40.7 40.6 40.5 40.5 40.4 40.4 40.4 41.2 41.2 41.2 41.0 41.1 41.0 40.4 40.2 40.1 40.1 40.1 40.0 40.0 40.0 39.9 39.9 39.9 39.8 39.7 39.7 39.6 39.6 39.6 39.5 39.5 39.4 39.4 39.3 39.2 39.2 40.0 39.9 39.8 39.7 39.7 39.6 39.6 39.5 38.9 38.9 38.9 38.9 38.8 38.8 38.7 38.7 38.8 38.8 38.8 38.8 38.8 38.7 38.6 38.3 37.2 NaN NaN NaN NaN NaN NaN NaN NaN NaN NaN NaN NaN NaN NaN NaN NaN NaN NaN NaN NaN NaN NaN NaN NaN NaN NaN NaN NaN NaN NaN NaN NaN NaN NaN NaN NaN NaN NaN NaN NaN NaN NaN NaN NaN NaN NaN NaN
39.2 39.3 39.4 39.6 39.7 39.9 40.0 40.1 40.2 40.3 40.4 40.5 40.6 40.6 40.7 40.8 40.8 40.8 40.8 40.9 40.9 40.8 40.8 40.8 40.7 40.7 40.7 40.6 40.7 40.5 40.5 40.5 40.5 40.4 40.3 40.3 40.2 41.2 41.1 40.8 40.9 40.9 40.9 40.8 40.5 40.6 40.3 40.0 39.9 39.9 39.8 39.8 39.7 39.7 39.6 39.6 39.5 39.5 39.5 39.4 39.3 39.3 39.2 39.3 39.9 39.8 39.8 39.7 39.6 39.7 39.4 38.9 38.9 38.9 38.9 38.9 38.8 38.9 38.8 38.8 38.9 38.8 38.8 38.8 38.8 38.9 38.7 37.7 NaN NaN NaN NaN NaN NaN NaN NaN NaN NaN NaN NaN NaN NaN NaN NaN NaN NaN NaN NaN NaN NaN NaN NaN NaN NaN NaN NaN NaN NaN NaN NaN NaN NaN NaN NaN NaN NaN NaN NaN NaN NaN NaN NaN NaN NaN NaN NaN
38.9 39.1 39.2 39.4 39.5 39.7 39.8 39.9 40.0 40.1 40.2 40.3 40.4 40.5 40.5 40.6 40.7 40.7 40.7 40.8 40.8 40.8 40.7 40.7 40.6 40.6 40.6 40.6 40.6 40.5 40.5 40.6 40.4 40.4 40.3 40.4 40.3 40.3 40.1 40.1 40.1 40.4 40.9 40.8 41.0 40.8 40.7 40.8 40.7 40.7 40.6 40.2 40.4 39.8 39.6 39.6 39.5 39.4 39.4 39.3 39.3 39.2 39.2 39.5 39.8 39.8 39.7 39.7 39.6 39.5 39.0 38.9 38.9 38.8 38.8 38.8 38.6 38.9 38.8 38.9 38.8 38.8 38.9 38.9 38.9 38.9 38.1 NaN NaN NaN NaN NaN NaN NaN NaN NaN NaN NaN NaN NaN NaN NaN NaN NaN NaN NaN NaN NaN NaN NaN NaN NaN NaN NaN NaN NaN NaN NaN NaN NaN NaN NaN NaN NaN NaN NaN NaN NaN NaN NaN NaN NaN NaN NaN NaN NaN
38.7 38.9 39.0 39.2 39.3 39.5 39.6 39.7 39.8 40.0 40.1 40.2 40.2 40.3 40.4 40.5 40.5 40.6 40.6 40.6 40.7 40.7 40.8 40.7 40.7 40.5 40.6 40.6 40.5 40.5 40.5 40.4 40.5 40.3 40.3 40.4 40.2 40.3 40.2 40.2 40.2 39.9 39.9 39.9 39.9 40.1 40.8 40.8 40.6 40.6 40.5 40.4 40.4 40.3 40.3 40.3 40.1 39.8 39.3 39.3 39.2 39.2 39.2 39.8 39.7 39.9 39.7 39.7 39.2 38.9 39.0 39.1 38.9 38.9 38.8 38.7 38.8 38.8 38.8 38.8 38.9 39.0 39.0 39.0 39.0 38.9 37.4 NaN NaN NaN NaN NaN NaN NaN NaN NaN NaN NaN NaN NaN NaN NaN NaN NaN NaN NaN NaN NaN NaN NaN NaN NaN NaN NaN NaN NaN NaN NaN NaN NaN NaN NaN NaN NaN NaN NaN NaN NaN NaN NaN NaN NaN NaN NaN NaN NaN
38.5 38.7 38.8 39.0 39.1 39.3 39.4 39.6 39.7 39.8 39.9 40.0 40.1 40.2 40.3 40.3 40.4 40.4 40.5 40.5 40.5 40.6 40.6 40.6 40.7 40.6 40.6 40.6 40.6 40.5 40.4 40.4 40.4 40.3 40.3 40.4 40.2 40.3 40.2 40.1 40.1 40.0 40.0 39.9 39.9 39.8 39.8 39.7 39.6 39.6 39.6 39.6 39.6 40.4 39.7 40.0 40.2 39.8 39.3 39.2 39.2 39.2 39.1 39.8 39.7 39.6 39.3 39.0 38.9 38.9 38.9 38.8 38.8 38.8 38.8 38.8 38.8 38.9 38.8 38.9 39.0 39.1 39.0 39.0 39.1 37.9 NaN NaN NaN NaN NaN NaN NaN NaN NaN NaN NaN NaN NaN NaN NaN NaN NaN NaN NaN NaN NaN NaN NaN NaN NaN NaN NaN NaN NaN NaN NaN NaN NaN NaN NaN NaN NaN NaN NaN NaN NaN NaN NaN NaN NaN NaN NaN NaN NaN NaN
38.3 38.5 38.6 38.8 39.0 39.1 39.3 39.4 39.5 39.6 39.7 39.9 39.9 40.0 40.1 40.2 40.3 40.3 40.4 40.4 40.4 40.5 40.5 40.5 40.5 40.6 40.5 40.5 40.5 40.5 40.5 40.4 40.3 40.3 40.3 40.2 40.1 40.1 40.1 40.1 40.1 40.0 39.9 40.0 39.9 39.8 39.8 39.8 39.7 39.6 39.5 39.6 39.4 39.4 39.4 39.4 39.3 39.3 39.3 39.2 39.2 39.1 39.1 39.1 39.0 39.0 39.0 39.1 38.9 38.9 39.0 38.6 38.8 38.9 38.8 38.9 38.9 38.9 38.9 39.0 39.0 39.1 39.1 39.1 38.9 37.2 NaN NaN NaN NaN NaN NaN NaN NaN NaN NaN NaN NaN NaN NaN NaN NaN NaN NaN NaN NaN NaN NaN NaN NaN NaN NaN NaN NaN NaN NaN NaN NaN NaN NaN NaN NaN NaN NaN NaN NaN NaN NaN NaN NaN NaN NaN NaN NaN NaN NaN
38.1 38.3 38.5 38.6 38.8 39.0 39.1 39.2 39.4 39.5 39.6 39.7 39.8 39.9 40.0 40.1 40.1 40.2 40.3 40.3 40.3 40.4 40.4 40.4 40.4 40.4 40.4 40.5 40.5 40.3 40.4 40.3 40.3 40.3 40.2 40.2 40.2 40.2 40.1 40.1 40.0 40.0 40.0 40.0 39.9 40.0 40.0 39.8 39.7 39.6 39.6 39.5 39.5 39.4 39.6 39.5 39.4 39.3 39.2 39.4 39.2 39.4 39.1 39.0 39.0 39.0 39.0 39.0 38.9 38.9 38.9 38.9 38.9 38.7 38.8 38.9 38.9 38.8 39.1 39.1 39.1 39.2 39.2 39.2 37.7 NaN NaN NaN NaN NaN NaN NaN NaN NaN NaN NaN NaN NaN NaN NaN NaN NaN NaN NaN NaN NaN NaN NaN NaN NaN NaN NaN NaN NaN NaN NaN NaN NaN NaN NaN NaN NaN NaN NaN NaN NaN NaN NaN NaN NaN NaN NaN NaN NaN NaN NaN
37.9 38.1 38.3 38.5 38.6 38.8 38.9 39.1 39.2 39.3 39.5 39.6 39.7 39.8 39.9 40.0 40.0 40.1 40.2 40.2 40.3 40.3 40.3 40.3 40.3 40.4 40.4 40.3 40.4 40.3 40.4 40.3 40.5 40.3 40.3 40.3 40.1 40.1 40.1 40.1 40.1 40.0 39.9 39.9 39.8 39.8 39.8 39.6 39.7 39.7 39.7 39.6 39.6 39.6 39.5 39.4 39.4 39.3 39.2 39.2 39.2 39.2 39.1 39.3 39.1 39.0 39.0 38.9 38.9 38.9 38.8 38.9 38.7 38.8 38.8 38.9 38.9 39.0 39.0 39.1 39.2 39.2 39.3 38.2 NaN NaN NaN NaN NaN NaN NaN NaN NaN NaN NaN NaN NaN NaN NaN NaN NaN NaN NaN NaN NaN NaN NaN NaN NaN NaN NaN NaN NaN NaN NaN NaN NaN NaN NaN NaN NaN NaN NaN NaN NaN NaN NaN NaN NaN NaN NaN NaN NaN NaN NaN NaN
37.8 37.9 38.1 38.3 38.5 38.6 38.8 38.9 39.1 39.2 39.3 39.5 39.6 39.7 39.8 39.8 39.9 40.0 40.1 40.1 40.2 40.2 40.2 40.3 40.3 40.3 40.3 40.3 40.3 40.3 40.2 40.2 40.4 40.2 40.2 40.3 40.0 40.0 40.1 40.0 40.0 39.9 39.9 39.9 39.8 39.8 39.7 39.7 39.6 39.6 39.5 39.4 39.5 39.4 39.3 39.4 39.4 39.3 39.2 39.2 39.3 39.2 39.1 39.1 39.0 38.9 38.9 38.9 38.9 38.9 38.8 38.8 38.7 38.7 38.8 38.8 38.8 39.0 39.0 39.1 39.2 39.2 39.3 37.4 NaN NaN NaN NaN NaN NaN NaN NaN NaN NaN NaN NaN NaN NaN NaN NaN NaN NaN NaN NaN NaN NaN NaN NaN NaN NaN NaN NaN NaN NaN NaN NaN NaN NaN NaN NaN NaN NaN NaN NaN NaN NaN NaN NaN NaN NaN NaN NaN NaN NaN NaN NaN
37.6 37.8 38.0 38.2 38.3 38.5 38.7 38.8 39.0 39.1 39.2 39.3 39.5 39.6 39.7 39.7 39.8 39.9 40.0 40.0 40.1 40.1 40.2 40.2 40.2 40.2 40.2 40.2 40.2 40.2 40.2 40.2 40.1 40.1 40.0 40.1 40.1 40.1 40.0 40.0 39.9 39.9 39.9 39.8 39.8 39.7 39.7 39.6 39.6 39.6 39.5 39.5 39.5 39.5 39.4 39.4 39.3 39.2 39.2 39.2 39.1 39.1 39.1 39.0 39.0 39.0 38.9 38.9 38.8 38.9 38.8 38.7 38.7 38.7 38.8 38.9 38.8 39.0 39.1 39.2 39.2 39.3 38.0 NaN NaN NaN NaN NaN NaN NaN NaN NaN NaN NaN NaN NaN NaN NaN NaN NaN NaN NaN NaN NaN NaN NaN NaN NaN NaN NaN NaN NaN NaN NaN NaN NaN NaN NaN NaN NaN NaN NaN NaN NaN NaN NaN NaN NaN NaN NaN NaN NaN NaN NaN NaN NaN
37.4 37.6 37.8 38.0 38.2 38.4 38.5 38.7 38.8 39.0 39.1 39.2 39.4 39.5 39.6 39.7 39.7 39.8 39.9 40.0 40.0 40.1 40.1 40.1 40.2 40.2 40.2 40.2 40.2 40.2 40.1 40.1 40.1 40.1 40.1 40.0 40.0 39.9 39.9 39.9 40.0 39.9 39.8 39.7 39.7 39.8 39.7 39.6 39.5 39.5 39.4 39.5 39.5 39.5 39.5 39.5 39.4 39.2 39.2 39.2 39.1 39.1 39.1 39.2 39.1 39.1 39.0 38.9 38.8 38.8 38.8 38.8 38.7 38.6 38.8 38.8 38.9 39.0 39.1 39.1 39.2 39.2 37.1 NaN NaN NaN NaN NaN NaN NaN NaN NaN NaN NaN NaN NaN NaN NaN NaN NaN NaN NaN NaN NaN NaN NaN NaN NaN NaN NaN NaN NaN NaN NaN NaN NaN NaN NaN NaN NaN NaN NaN NaN NaN NaN NaN NaN NaN NaN NaN NaN NaN NaN NaN NaN NaN
37.3 37.5 37.7 37.9 38.1 38.2 38.4 38.6 38.7 38.9 39.0 39.1 39.3 39.4 39.5 39.6 39.7 39.8 39.8 39.9 40.0 40.0 40.1 40.1 40.1 40.1 40.1 40.1 40.1 40.1 40.1 40.1 40.1 40.1 40.1 40.4 40.0 39.9 39.9 39.8 39.8 39.8 39.8 39.8 39.7 39.7 39.7 39.6 39.6 39.6 39.5 39.4 39.4 39.3 39.4 39.3 39.4 39.2 39.2 39.1 39.1 39.0 39.1 39.1 39.1 39.1 39.0 38.8 38.8 38.8 38.8 38.8 38.8 38.7 38.7 38.7 38.8 39.0 39.0 39.1 39.2 37.7 NaN NaN NaN NaN NaN NaN NaN NaN NaN NaN NaN NaN NaN NaN NaN NaN NaN NaN NaN NaN NaN NaN NaN NaN NaN NaN NaN NaN NaN NaN NaN NaN NaN NaN NaN NaN NaN NaN NaN NaN NaN NaN NaN NaN NaN NaN NaN NaN NaN NaN NaN NaN NaN NaN
37.1 37.3 37.6 37.7 37.9 38.1 38.3 38.5 38.6 38.8 38.9 39.0 39.2 39.3 39.4 39.5 39.6 39.7 39.8 39.8 39.9 40.0 40.0 40.1 40.1 40.1 40.0 40.0 40.0 40.0 40.0 40.0 40.0 40.0 40.0 40.0 40.0 40.1 39.8 39.8 39.8 39.8 39.7 39.7 39.6 39.7 39.7 39.8 39.6 39.5 39.4 39.4 39.3 39.2 39.3 39.2 39.2 39.1 39.1 39.0 39.0 39.0 39.0 39.0 38.9 38.9 38.9 38.8 38.7 38.7 38.7 38.7 38.7 38.6 38.7 38.8 38.8 38.9 39.0 39.1 38.6 NaN NaN NaN NaN NaN NaN NaN NaN NaN NaN NaN NaN NaN NaN NaN NaN NaN NaN NaN NaN NaN NaN NaN NaN NaN NaN NaN NaN NaN NaN NaN NaN NaN NaN NaN NaN NaN NaN NaN NaN NaN NaN NaN NaN NaN NaN NaN NaN NaN NaN NaN NaN NaN NaN NaN
37.0 37.2 37.4 37.6 37.8 38.0 38.2 38.4 38.5 38.7 38.8 39.0 39.1 39.2 39.3 39.4 39.5 39.6 39.7 39.8 39.9 39.9 40.0 40.0 40.0 40.0 40.0 40.0 40.0 39.9 39.9 39.9 39.9 39.9 39.9 39.9 39.9 39.9 40.0 40.3 39.9 39.7 39.6 39.6 39.6 39.5 39.5 39.6 39.4 39.4 39.7 39.4 39.6 39.4 39.3 39.3 39.0 39.1 39.1 39.0 39.1 39.0 39.1 38.9 38.9 38.9 38.8 38.7 38.8 38.8 38.7 38.8 38.7 38.6 38.7 38.7 38.7 38.9 38.9 39.0 37.4 NaN NaN NaN NaN NaN NaN NaN NaN NaN NaN NaN NaN NaN NaN NaN NaN NaN NaN NaN NaN NaN NaN NaN NaN NaN NaN NaN NaN NaN NaN NaN NaN NaN NaN NaN NaN NaN NaN NaN NaN NaN NaN NaN NaN NaN NaN NaN NaN NaN NaN NaN NaN NaN NaN NaN
NaN 37.1 37.3 37.5 37.7 37.9 38.1 38.3 38.4 38.6 38.7 38.9 39.0 39.1 39.3 39.4 39.5 39.6 39.7 39.7 39.8 39.9 39.9 40.0 39.9 39.9 39.9 39.9 39.9 39.9 39.9 39.9 39.8 39.8 39.8 39.8 39.9 39.9 39.9 39.9 39.9 40.3 40.3 39.9 39.6 39.5 39.5 39.4 39.4 39.4 39.4 39.3 39.3 39.2 39.2 39.2 39.1 39.1 39.1 39.0 38.9 38.9 38.9 38.9 38.8 38.8 38.8 38.7 38.7 38.7 38.7 38.7 38.7 38.7 38.7 38.7 38.7 38.9 38.9 38.1 NaN NaN NaN NaN NaN NaN NaN NaN NaN NaN NaN NaN NaN NaN NaN NaN NaN NaN NaN NaN NaN NaN NaN NaN NaN NaN NaN NaN NaN NaN NaN NaN NaN NaN NaN NaN NaN NaN NaN NaN NaN NaN NaN NaN NaN NaN NaN NaN NaN NaN NaN NaN NaN NaN NaN NaN
NaN NaN 37.2 37.4 37.6 37.8 38.0 38.2 38.3 38.5 38.7 38.8 38.9 39.1 39.2 39.3 39.4 39.5 39.6 39.7 39.8 39.9 39.9 39.9 39.9 39.9 39.8 39.8 39.8 39.8 39.8 39.8 39.8 39.8 39.8 39.8 39.8 39.8 39.8 39.8 39.8 39.8 40.1 40.2 40.1 40.1 39.9 39.8 39.4 39.3 39.3 39.3 39.2 39.2 39.1 39.2 39.1 39.1 39.0 38.9 39.0 38.9 38.9 38.8 38.8 38.7 38.6 38.7 38.6 38.7 38.7 38.7 38.6 38.6 38.6 38.6 38.6 38.7 38.8 37.1 NaN NaN NaN NaN NaN NaN NaN NaN NaN NaN NaN NaN NaN NaN NaN NaN NaN NaN NaN NaN NaN NaN NaN NaN NaN NaN NaN NaN NaN NaN NaN NaN NaN NaN NaN NaN NaN NaN NaN NaN NaN NaN NaN NaN NaN NaN NaN NaN NaN NaN NaN NaN NaN NaN NaN NaN
NaN NaN 37.1 37.3 37.5 37.7 37.9 38.1 38.3 38.4 38.6 38.7 38.9 39.0 39.2 39.3 39.4 39.5 39.6 39.7 39.8 39.8 39.9 39.8 39.8 39.8 39.8 39.7 39.7 39.7 39.7 39.7 39.7 39.7 39.7 39.7 39.7 39.7 39.7 39.7 39.7 39.7 39.7 39.8 40.0 40.1 40.1 40.0 40.0 40.0 39.9 39.9 39.6 39.2 39.2 39.1 39.1 39.0 39.0 38.9 38.9 38.9 38.9 38.8 38.7 38.7 38.6 38.6 38.6 38.6 38.6 38.6 38.6 38.6 38.5 38.6 38.5 38.6 37.8 NaN NaN NaN NaN NaN NaN NaN NaN NaN NaN NaN NaN NaN NaN NaN NaN NaN NaN NaN NaN NaN NaN NaN NaN NaN NaN NaN NaN NaN NaN NaN NaN NaN NaN NaN NaN NaN NaN NaN NaN NaN NaN NaN NaN NaN NaN NaN NaN NaN NaN NaN NaN NaN NaN NaN NaN NaN
NaN NaN 37.0 37.2 37.4 37.6 37.8 38.0 38.2 38.4 38.5 38.7 38.8 39.0 39.1 39.2 39.4 39.5 39.6 39.7 39.8 39.8 39.8 39.8 39.7 39.7 39.7 39.7 39.7 39.6 39.6 39.6 39.6 39.6 39.6 39.6 39.6 39.6 39.6 39.6 39.6 39.6 39.6 39.7 39.7 39.7 40.0 40.0 40.0 39.9 39.9 39.8 39.8 39.8 39.8 39.7 39.7 39.0 39.0 38.9 38.9 38.9 38.9 38.8 38.8 38.7 38.6 38.6 38.6 38.6 38.5 38.6 38.6 38.5 38.5 38.5 38.6 38.7 NaN NaN NaN NaN NaN NaN NaN NaN NaN NaN NaN NaN NaN NaN NaN NaN NaN NaN NaN NaN NaN NaN NaN NaN NaN NaN NaN NaN NaN NaN NaN NaN NaN NaN NaN NaN NaN NaN NaN NaN NaN NaN NaN NaN NaN NaN NaN NaN NaN NaN NaN NaN NaN NaN NaN NaN NaN NaN
NaN NaN NaN 37.1 37.3 37.6 37.8 37.9 38.1 38.3 38.5 38.6 38.8 38.9 39.1 39.2 39.3 39.4 39.6 39.7 39.7 39.7 39.7 39.7 39.7 39.6 39.6 39.6 39.6 39.6 39.5 39.5 39.5 39.5 39.5 39.5 39.5 39.5 39.5 39.5 39.5 39.5 39.5 39.6 39.6 39.6 39.6 39.6 39.9 39.9 39.8 39.8 39.8 39.7 39.7 39.7 39.7 39.0 38.9 38.9 38.9 38.8 38.8 39.2 39.1 39.1 38.9 38.6 38.6 38.6 38.5 38.5 38.5 38.4 38.5 38.5 38.5 37.5 NaN NaN NaN NaN NaN NaN NaN NaN NaN NaN NaN NaN NaN NaN NaN NaN NaN NaN NaN NaN NaN NaN NaN NaN NaN NaN NaN NaN NaN NaN NaN NaN NaN NaN NaN NaN NaN NaN NaN NaN NaN NaN NaN NaN NaN NaN NaN NaN NaN NaN NaN NaN NaN NaN NaN NaN NaN NaN
NaN NaN NaN 37.1 37.3 37.5 37.7 37.9 38.1 38.3 38.4 38.6 38.8 38.9 39.0 39.2 39.3 39.4 39.5 39.6 39.7 39.7 39.6 39.6 39.6 39.6 39.5 39.5 39.5 39.5 39.5 39.4 39.4 39.4 39.4 39.4 39.4 39.4 39.4 39.4 39.4 39.4 39.4 39.5 39.5 39.5 39.5 39.5 39.5 39.6 39.8 39.7 39.7 39.7 39.7 39.7 39.6 39.0 38.9 38.9 38.8 38.8 39.0 39.1 39.4 39.4 39.0 38.8 38.6 38.5 38.5 38.5 38.5 38.4 38.5 38.4 38.3 NaN NaN NaN NaN NaN NaN NaN NaN NaN NaN NaN NaN NaN NaN NaN NaN NaN NaN NaN NaN NaN NaN NaN NaN NaN NaN NaN NaN NaN NaN NaN NaN NaN NaN NaN NaN NaN NaN NaN NaN NaN NaN NaN NaN NaN NaN NaN NaN NaN NaN NaN NaN NaN NaN NaN NaN NaN NaN NaN
NaN NaN NaN NaN 37.2 37.4 37.6 37.8 38.0 38.2 38.4 38.6 38.7 38.9 39.0 39.2 39.3 39.4 39.5 39.6 39.6 39.6 39.6 39.5 39.5 39.5 39.4 39.4 39.4 39.4 39.4 39.4 39.3 39.3 39.3 39.3 39.3 39.3 39.3 39.3 39.3 39.3 39.3 39.4 39.4 39.4 39.4 39.4 39.4 39.5 39.5 39.7 39.7 39.6 39.6 39.5 39.7 38.9 38.9 38.9 38.8 38.8 38.7 39.2 38.6 39.1 39.3 39.2 39.2 39.2 38.6 38.4 38.4 38.5 38.5 38.4 37.2 NaN NaN NaN NaN NaN NaN NaN NaN NaN NaN NaN NaN NaN NaN NaN NaN NaN NaN NaN NaN NaN NaN NaN NaN NaN NaN NaN NaN NaN NaN NaN NaN NaN NaN NaN NaN NaN NaN NaN NaN NaN NaN NaN NaN NaN NaN NaN NaN NaN NaN NaN NaN NaN NaN NaN NaN NaN NaN NaN
NaN NaN NaN NaN 37.2 37.4 37.6 37.8 38.0 38.2 38.4 38.5 38.7 38.9 39.0 39.2 39.3 39.4 39.5 39.6 39.5 39.5 39.5 39.4 39.4 39.4 39.4 39.3 39.3 39.3 39.3 39.3 39.3 39.2 39.2 39.2 39.2 39.2 39.2 39.2 39.2 39.2 39.2 39.2 39.3 39.3 39.3 39.3 39.3 39.3 39.4 39.4 39.4 39.6 39.5 39.4 39.4 38.9 38.9 38.8 38.8 38.8 39.2 39.4 38.6 38.6 39.1 39.2 39.4 39.2 39.3 38.4 38.4 38.4 38.4 38.0 NaN NaN NaN NaN NaN NaN NaN NaN NaN NaN NaN NaN NaN NaN NaN NaN NaN NaN NaN NaN NaN NaN NaN NaN NaN NaN NaN NaN NaN NaN NaN NaN NaN NaN NaN NaN NaN NaN NaN NaN NaN NaN NaN NaN NaN NaN NaN NaN NaN NaN NaN NaN NaN NaN NaN NaN NaN NaN NaN NaN
NaN NaN NaN NaN 37.1 37.3 37.6 37.8 38.0 38.2 38.3 38.5 38.7 38.9 39.0 39.2 39.3 39.4 39.5 39.5 39.5 39.4 39.4 39.4 39.3 39.3 39.3 39.3 39.2 39.2 39.2 39.2 39.2 39.1 39.1 39.1 39.1 39.1 39.1 39.1 39.1 39.1 39.1 39.1 39.1 39.2 39.2 39.2 39.2 39.2 39.3 39.3 39.3 39.3 39.4 39.5 39.4 38.9 38.8 38.8 38.8 38.8 39.3 39.4 39.4 39.1 39.2 39.2 39.4 39.3 39.2 39.0 38.4 38.3 38.3 NaN NaN NaN NaN NaN NaN NaN NaN NaN NaN NaN NaN NaN NaN NaN NaN NaN NaN NaN NaN NaN NaN NaN NaN NaN NaN NaN NaN NaN NaN NaN NaN NaN NaN NaN NaN NaN NaN NaN NaN NaN NaN NaN NaN NaN NaN NaN NaN NaN NaN NaN NaN NaN NaN NaN NaN NaN NaN NaN NaN NaN
NaN NaN NaN NaN 37.1 37.3 37.5 37.7 37.9 38.1 38.3 38.5 38.7 38.9 39.0 39.2 39.3 39.5 39.5 39.4 39.4 39.3 39.3 39.3 39.2 39.2 39.2 39.2 39.1 39.1 39.1 39.1 39.1 39.0 39.0 39.0 39.0 39.0 39.0 39.0 39.0 39.0 39.0 39.0 39.0 39.1 39.1 39.1 39.1 39.1 39.1 39.2 39.2 39.2 39.2 39.3 39.0 38.8 38.8 38.8 38.7 39.3 39.2 39.3 39.2 39.3 39.4 39.2 39.0 39.2 39.2 39.2 38.8 38.3 37.6 NaN NaN NaN NaN NaN NaN NaN NaN NaN NaN NaN NaN NaN NaN NaN NaN NaN NaN NaN NaN NaN NaN NaN NaN NaN NaN NaN NaN NaN NaN NaN NaN NaN NaN NaN NaN NaN NaN NaN NaN NaN NaN NaN NaN NaN NaN NaN NaN NaN NaN NaN NaN NaN NaN NaN NaN NaN NaN NaN NaN NaN
NaN NaN NaN NaN 37.0 37.3 37.5 37.7 37.9 38.1 38.3 38.5 38.7 38.9 39.0 39.2 39.3 39.4 39.4 39.3 39.3 39.3 39.2 39.2 39.2 39.1 39.1 39.1 39.0 39.0 39.0 39.0 39.0 38.9 38.9 38.9 38.9 38.9 38.9 38.9 38.9 38.9 38.9 38.9 38.9 38.9 38.9 39.0 39.0 39.0 39.0 39.0 39.1 39.1 39.1 39.2 39.2 39.2 38.8 38.7 38.7 39.2 39.3 39.3 39.2 39.4 39.2 39.0 39.1 39.1 39.3 39.3 39.1 38.6 NaN NaN NaN NaN NaN NaN NaN NaN NaN NaN NaN NaN NaN NaN NaN NaN NaN NaN NaN NaN NaN NaN NaN NaN NaN NaN NaN NaN NaN NaN NaN NaN NaN NaN NaN NaN NaN NaN NaN NaN NaN NaN NaN NaN NaN NaN NaN NaN NaN NaN NaN NaN NaN NaN NaN NaN NaN NaN NaN NaN NaN NaN
NaN NaN NaN NaN 37.0 37.3 37.5 37.7 37.9 38.1 38.3 38.5 38.7 38.9 39.0 39.2 39.4 39.4 39.3 39.3 39.2 39.2 39.1 39.1 39.1 39.0 39.0 39.0 38.9 38.9 38.9 38.9 38.9 38.8 38.8 38.8 38.8 38.8 38.8 38.8 38.8 38.8 38.8 38.8 38.8 38.8 38.8 38.8 38.9 38.9 38.9 38.9 38.9 39.0 39.0 39.0 39.1 39.1 39.1 39.2 38.6 39.0 39.3 39.3 39.3 39.0 39.1 39.2 39.3 39.3 39.2 39.2 39.1 38.2 NaN NaN NaN NaN NaN NaN NaN NaN NaN NaN NaN NaN NaN NaN NaN NaN NaN NaN NaN NaN NaN NaN NaN NaN NaN NaN NaN NaN NaN NaN NaN NaN NaN NaN NaN NaN NaN NaN NaN NaN NaN NaN NaN NaN NaN NaN NaN NaN NaN NaN NaN NaN NaN NaN NaN NaN NaN NaN NaN NaN NaN NaN
NaN NaN NaN NaN NaN 37.2 37.5 37.7 37.9 38.1 38.3 38.5 38.7 38.9 39.1 39.2 39.3 39.3 39.2 39.2 39.1 39.1 39.0 39.0 39.0 38.9 38.9 38.9 38.9 38.8 38.8 38.8 38.8 38.7 38.7 38.7 38.7 38.7 38.7 38.7 38.7 38.7 38.7 38.7 38.7 38.7 38.7 38.7 38.7 38.8 38.8 38.8 38.8 38.8 38.9 38.9 38.9 39.0 39.0 39.0 39.1 39.1 39.0 39.3 39.1 38.9 39.3 39.1 39.2 39.0 38.9 39.3 39.2 39.2 37.7 NaN NaN NaN NaN NaN NaN NaN NaN NaN NaN NaN NaN NaN NaN NaN NaN NaN NaN NaN NaN NaN NaN NaN NaN NaN NaN NaN NaN NaN NaN NaN NaN NaN NaN NaN NaN NaN NaN NaN NaN NaN NaN NaN NaN NaN NaN NaN NaN NaN NaN NaN NaN NaN NaN NaN NaN NaN NaN NaN NaN NaN
NaN NaN NaN NaN NaN 37.2 37.5 37.7 37.9 38.1 38.4 38.6 38.7 38.9 39.1 39.3 39.2 39.2 39.1 39.1 39.0 39.0 39.0 38.9 38.9 38.8 38.8 38.8 38.8 38.7 38.7 38.7 38.7 38.6 38.6 38.6 38.6 38.6 38.6 38.6 38.6 38.6 38.6 38.6 38.6 38.6 38.6 38.6 38.6 38.6 38.6 38.7 38.7 38.7 38.7 38.8 38.8 38.8 38.9 38.9 38.9 39.0 39.0 39.0 39.2 38.9 39.1 39.2 39.0 38.9 38.9 39.1 39.2 39.3 39.3 38.6 NaN NaN NaN NaN NaN NaN NaN NaN NaN NaN NaN NaN NaN NaN NaN NaN NaN NaN NaN NaN NaN NaN NaN NaN NaN NaN NaN NaN NaN NaN NaN NaN NaN NaN NaN NaN NaN NaN NaN NaN NaN NaN NaN NaN NaN NaN NaN NaN NaN NaN NaN NaN NaN NaN NaN NaN NaN NaN NaN NaN
NaN NaN NaN NaN NaN 37.2 37.5 37.7 37.9 38.2 38.4 38.6 38.8 39.0 39.2 39.2 39.1 39.1 39.0 39.0 38.9 38.9 38.9 38.8 38.8 38.7 38.7 38.7 38.7 38.6 38.6 38.6 38.6 38.5 38.5 38.5 38.5 38.5 38.5 38.5 38.5 38.5 38.4 38.5 38.5 38.5 38.5 38.5 38.5 38.5 38.5 38.5 38.6 38.6 38.6 38.6 38.7 38.7 38.7 38.8 38.8 38.8 38.9 38.9 39.0 39.1 39.2 39.1 38.9 39.0 39.1 39.1 39.3 39.4 39.4 39.4 39.3 37.1 NaN NaN NaN NaN NaN NaN NaN NaN NaN NaN NaN NaN NaN NaN NaN NaN NaN NaN NaN NaN NaN NaN NaN NaN NaN NaN NaN NaN NaN NaN NaN NaN NaN NaN NaN NaN NaN NaN NaN NaN NaN NaN NaN NaN NaN NaN NaN NaN NaN NaN NaN NaN NaN NaN NaN NaN NaN NaN
NaN NaN NaN NaN NaN 37.2 37.5 37.7 38.0 38.2 38.4 38.6 38.8 39.0 39.2 39.1 39.1 39.0 39.0 38.9 38.9 38.8 38.8 38.7 38.7 38.6 38.6 38.6 38.5 38.5 38.5 38.5 38.4 38.4 38.4 38.4 38.4 38.4 38.3 38.3 38.3 38.3 38.3 38.3 38.3 38.3 38.3 38.3 38.4 38.4 38.4 38.4 38.4 38.4 38.5 38.5 38.5 38.5 38.6 38.6 38.6 38.7 38.7 38.8 38.9 38.9 39.0 39.0 39.0 39.1 39.0 39.0 39.2 39.5 39.7 39.7 39.6 39.5 39.3 NaN NaN NaN NaN NaN NaN NaN NaN NaN NaN NaN NaN NaN NaN NaN NaN NaN NaN NaN NaN NaN NaN NaN NaN NaN NaN NaN NaN NaN NaN NaN NaN NaN NaN NaN NaN NaN NaN NaN NaN NaN NaN NaN NaN NaN NaN NaN NaN NaN NaN NaN NaN NaN NaN NaN NaN NaN
NaN NaN NaN NaN 37.0 37.3 37.5 37.8 38.0 38.2 38.4 38.7 38.9 39.1 39.1 39.0 39.0 38.9 38.9 38.8 38.8 38.7 38.7 38.6 38.6 38.5 38.5 38.5 38.4 38.4 38.4 38.4 38.3 38.3 38.3 38.3 38.3 38.2 38.2 38.2 38.2 38.2 38.2 38.2 38.2 38.2 38.2 38.2 38.2 38.2 38.3 38.3 38.3 38.3 38.3 38.4 38.4 38.4 38.4 38.5 38.5 38.5 38.6 38.7 38.8 38.8 38.9 38.9 39.0 39.0 38.9 38.8 38.9 39.1 39.5 40.0 40.0 39.9 39.7 39.5 38.7 NaN NaN NaN NaN NaN NaN NaN NaN NaN NaN NaN NaN NaN NaN NaN NaN NaN NaN NaN NaN NaN NaN NaN NaN NaN NaN NaN NaN NaN NaN NaN NaN NaN NaN NaN NaN NaN NaN NaN NaN NaN NaN NaN NaN NaN NaN NaN NaN NaN NaN NaN NaN NaN NaN NaN
