0.027 0.017 0.007 -0.003 -0.012 -0.022 -0.032 -0.042 -0.052 -0.061 -0.071 -0.081 -0.091 -0.101 -0.110 -0.120 -0.130 -0.140 -0.149 -0.159 -0.169 -0.179 -0.188 -0.119 -0.161 -0.204 -0.224 -0.210 -0.192 -0.174 -0.156 -0.138 -0.120 -0.103 -0.138 -0.162 -0.162 -0.161 -0.161 -0.160 -0.160 -0.160 -0.159 -0.159 -0.159 -0.158 -0.158 -0.157 -0.172 -0.206 -0.229 -0.229 -0.229 -0.229 -0.229 -0.230 -0.230 -0.230 -0.230 -0.230 -0.231 -0.231 -0.231 -0.231 -0.231 -0.231 -0.232 -0.232 -0.232 -0.232 -0.232 -0.233 -0.233 -0.233 -0.233 -0.233 -0.234 -0.234 -0.234 -0.234 -0.234 -0.234 -0.233 -0.233 -0.232 -0.232 -0.231 -0.231 -0.230 -0.230 -0.230 -0.229 -0.229 -0.228 -0.228 -0.227 -0.227 -0.226 -0.226 -0.225 -0.224 -0.224 -0.223 -0.222 -0.222 -0.221 -0.221 -0.220 -0.219 -0.219 -0.218 -0.217 -0.217 -0.216 -0.216 -0.215 -0.214 -0.214 -0.213 -0.212 -0.212 -0.211 -0.211 -0.210 -0.209 -0.209 -0.208 -0.207 -0.207 -0.206 -0.206 -0.205 -0.204 -0.204 -0.203 -0.202 -0.202 -0.201 -0.201 -0.200 -0.199 -0.199 -0.198 -0.197 -0.197 -0.196 -0.196 -0.195 -0.194 -0.194 -0.193 -0.192 -0.192 -0.191 -0.191 -0.190 -0.189 -0.189 -0.188 -0.187 -0.187 -0.186 -0.186 -0.185 -0.184 -0.184 -0.183 -0.182 -0.182 -0.181 -0.181 -0.180 -0.179 -0.179 -0.178 -0.177 -0.177 -0.176 -0.176 -0.175 -0.175 -0.177 -0.179 -0.181 -0.184 -0.186 -0.188 -0.190 -0.193 -0.195 -0.197 -0.199 -0.202 -0.204 -0.207 -0.210 -0.213 -0.216 -0.219 -0.222 -0.224 -0.227 -0.230 -0.233 -0.236 -0.232 -0.225 -0.218 -0.210 -0.203 -0.196 -0.080 0.082 0.124 0.114 0.104 0.058 0.108 0.158 0.208 0.258 0.308 0.358 0.408 0.459 0.546 0.638 0.730 0.464 0.197 -0.069 -0.336 -0.602 -0.691 -0.708 -0.725 -0.742 -0.759 -0.776 -0.783 -0.788 -0.793 -0.597 -0.185 0.210 0.074 -0.061 -0.234 -0.466 -0.611 -0.615 -0.620 -0.625 -0.630 -0.635 -0.640 -0.644 -0.649 -0.654 -0.659 -0.687 -0.724 -0.723 -0.722 -0.721 -0.721 -0.720 -0.719 -0.718 -0.717 -0.680 -0.531 -0.334 -0.136 0.061 0.258 0.319 0.067 -0.185 -0.437 -0.615 -0.363 -0.481 -0.464 -0.447 -0.430 -0.413 -0.396 -0.379 -0.362 -0.345 -0.329 -0.312 -0.295 -0.278 -0.261 -0.244 -0.227 -0.210 -0.193 -0.176 -0.159 -0.155 -0.152 -0.149 -0.147 -0.144 -0.141 -0.139 -0.136 -0.133 -0.131 -0.128 -0.125 -0.123 -0.120 -0.118 -0.115 -0.112 -0.110 -0.107 -0.104 -0.102 -0.099 -0.096 -0.094 -0.091 -0.088 -0.086 -0.083 -0.080 -0.074 -0.067 -0.060 -0.053 -0.047 -0.040 -0.038 -0.042 -0.046 -0.049 -0.053 -0.057 -0.060 -0.064 -0.067 -0.065 -0.061 -0.057 -0.054 -0.050 -0.047 -0.043 -0.039 -0.036 -0.032 -0.028 -0.030 -0.033 -0.037 -0.040 -0.043 -0.046 -0.050 -0.053 -0.056 -0.059 -0.063 -0.066 -0.065 -0.063 -0.062 -0.060 -0.059 -0.058 -0.056 -0.055 -0.053 -0.052 -0.051 -0.049 -0.049 -0.048 -0.048 -0.047 -0.047 -0.047 -0.046 -0.046 -0.045 -0.045 -0.044 -0.044 -0.043 -0.043 -0.042 -0.042 -0.041 -0.041 -0.040 -0.040 -0.040 -0.039 -0.039 -0.038 -0.038 -0.037 -0.037 -0.036 -0.036 -0.035 -0.035 -0.034 -0.034 -0.033 -0.033 -0.032 -0.032 -0.032 -0.031 -0.031 -0.030 -0.030 -0.029 -0.029 -0.028 -0.028 -0.027 -0.027 -0.026 -0.026 -0.025 -0.025 -0.025 -0.024 -0.024 -0.023 -0.023 -0.022 -0.022 -0.021 -0.021 -0.020 -0.020 -0.019 -0.019 -0.018 -0.018 -0.017 -0.017 -0.017 -0.016
0.031 0.021 0.011 0.001 -0.008 -0.018 -0.028 -0.038 -0.048 -0.057 -0.067 -0.077 -0.087 -0.097 -0.106 -0.116 -0.126 -0.136 -0.145 -0.155 -0.165 -0.175 -0.185 -0.101 -0.143 -0.187 -0.224 -0.218 -0.206 -0.188 -0.170 -0.152 -0.134 -0.131 -0.166 -0.168 -0.167 -0.167 -0.167 -0.166 -0.166 -0.165 -0.165 -0.165 -0.164 -0.164 -0.164 -0.163 -0.163 -0.162 -0.180 -0.214 -0.229 -0.230 -0.230 -0.230 -0.230 -0.230 -0.231 -0.231 -0.231 -0.231 -0.231 -0.232 -0.232 -0.232 -0.232 -0.232 -0.232 -0.233 -0.233 -0.233 -0.233 -0.233 -0.234 -0.234 -0.234 -0.234 -0.234 -0.235 -0.235 -0.234 -0.234 -0.233 -0.233 -0.232 -0.232 -0.231 -0.231 -0.230 -0.230 -0.230 -0.229 -0.229 -0.228 -0.228 -0.227 -0.227 -0.226 -0.225 -0.225 -0.224 -0.223 -0.223 -0.222 -0.222 -0.221 -0.220 -0.220 -0.219 -0.218 -0.218 -0.217 -0.217 -0.216 -0.215 -0.215 -0.214 -0.213 -0.213 -0.212 -0.212 -0.211 -0.210 -0.210 -0.209 -0.208 -0.208 -0.207 -0.207 -0.206 -0.205 -0.205 -0.204 -0.203 -0.203 -0.202 -0.202 -0.201 -0.200 -0.200 -0.199 -0.198 -0.198 -0.197 -0.197 -0.196 -0.195 -0.195 -0.194 -0.193 -0.193 -0.192 -0.192 -0.191 -0.190 -0.190 -0.189 -0.188 -0.188 -0.187 -0.187 -0.186 -0.185 -0.185 -0.184 -0.183 -0.183 -0.182 -0.182 -0.181 -0.180 -0.180 -0.179 -0.178 -0.178 -0.177 -0.177 -0.176 -0.175 -0.175 -0.177 -0.179 -0.182 -0.184 -0.186 -0.188 -0.191 -0.193 -0.195 -0.197 -0.200 -0.202 -0.205 -0.208 -0.211 -0.214 -0.217 -0.219 -0.222 -0.225 -0.228 -0.231 -0.233 -0.225 -0.218 -0.211 -0.204 -0.196 -0.189 -0.182 -0.117 0.049 0.039 0.028 0.018 -0.038 -0.006 0.044 0.094 0.143 0.193 0.243 0.297 0.381 0.473 0.565 0.657 0.650 0.384 0.118 -0.149 -0.378 -0.540 -0.702 -0.723 -0.740 -0.758 -0.775 -0.783 -0.788 -0.662 -0.250 0.163 0.575 0.589 0.358 0.127 -0.105 -0.336 -0.409 -0.414 -0.418 -0.423 -0.428 -0.433 -0.438 -0.443 -0.448 -0.503 -0.666 -0.715 -0.715 -0.714 -0.713 -0.712 -0.711 -0.711 -0.710 -0.688 -0.564 -0.439 -0.315 -0.126 0.071 0.269 0.365 0.112 -0.140 -0.342 -0.196 -0.421 -0.505 -0.489 -0.472 -0.455 -0.438 -0.421 -0.404 -0.387 -0.370 -0.353 -0.336 -0.319 -0.302 -0.285 -0.269 -0.252 -0.235 -0.218 -0.201 -0.184 -0.167 -0.152 -0.150 -0.147 -0.144 -0.142 -0.139 -0.136 -0.134 -0.131 -0.128 -0.126 -0.123 -0.120 -0.118 -0.115 -0.113 -0.110 -0.107 -0.105 -0.102 -0.099 -0.097 -0.094 -0.091 -0.089 -0.086 -0.083 -0.081 -0.074 -0.067 -0.060 -0.054 -0.047 -0.040 -0.043 -0.046 -0.050 -0.054 -0.057 -0.061 -0.064 -0.068 -0.072 -0.068 -0.065 -0.061 -0.057 -0.054 -0.050 -0.046 -0.043 -0.039 -0.035 -0.032 -0.032 -0.035 -0.039 -0.042 -0.045 -0.048 -0.052 -0.055 -0.058 -0.061 -0.065 -0.066 -0.065 -0.064 -0.062 -0.061 -0.059 -0.058 -0.057 -0.055 -0.054 -0.052 -0.051 -0.050 -0.049 -0.049 -0.048 -0.048 -0.047 -0.047 -0.046 -0.046 -0.045 -0.045 -0.045 -0.044 -0.044 -0.043 -0.043 -0.042 -0.042 -0.041 -0.041 -0.040 -0.040 -0.039 -0.039 -0.038 -0.038 -0.037 -0.037 -0.037 -0.036 -0.036 -0.035 -0.035 -0.034 -0.034 -0.033 -0.033 -0.032 -0.032 -0.031 -0.031 -0.030 -0.030 -0.030 -0.029 -0.029 -0.028 -0.028 -0.027 -0.027 -0.026 -0.026 -0.025 -0.025 -0.024 -0.024 -0.023 -0.023 -0.022 -0.022 -0.022 -0.021 -0.021 -0.020 -0.020 -0.019 -0.019 -0.018 -0.018 -0.017 -0.017 -0.016
0.035 0.025 0.015 0.005 -0.004 -0.014 -0.024 -0.034 -0.044 -0.053 -0.063 -0.073 -0.083 -0.092 -0.102 -0.112 -0.122 -0.132 -0.141 -0.151 -0.161 -0.171 -0.174 -0.148 -0.125 -0.170 -0.219 -0.218 -0.212 -0.202 -0.184 -0.166 -0.148 -0.159 -0.174 -0.173 -0.173 -0.173 -0.172 -0.172 -0.172 -0.171 -0.171 -0.170 -0.170 -0.170 -0.169 -0.169 -0.169 -0.168 -0.168 -0.167 -0.188 -0.222 -0.230 -0.231 -0.231 -0.231 -0.231 -0.231 -0.231 -0.232 -0.232 -0.232 -0.232 -0.232 -0.233 -0.233 -0.233 -0.233 -0.233 -0.234 -0.234 -0.234 -0.234 -0.234 -0.234 -0.235 -0.235 -0.235 -0.235 -0.235 -0.234 -0.234 -0.233 -0.233 -0.232 -0.232 -0.231 -0.231 -0.230 -0.230 -0.230 -0.229 -0.229 -0.228 -0.227 -0.227 -0.226 -0.226 -0.225 -0.224 -0.224 -0.223 -0.222 -0.222 -0.221 -0.221 -0.220 -0.219 -0.219 -0.218 -0.217 -0.217 -0.216 -0.216 -0.215 -0.214 -0.214 -0.213 -0.212 -0.212 -0.211 -0.211 -0.210 -0.209 -0.209 -0.208 -0.207 -0.207 -0.206 -0.206 -0.205 -0.204 -0.204 -0.203 -0.202 -0.202 -0.201 -0.201 -0.200 -0.199 -0.199 -0.198 -0.197 -0.197 -0.196 -0.196 -0.195 -0.194 -0.194 -0.193 -0.192 -0.192 -0.191 -0.191 -0.190 -0.189 -0.189 -0.188 -0.187 -0.187 -0.186 -0.186 -0.185 -0.184 -0.184 -0.183 -0.182 -0.182 -0.181 -0.181 -0.180 -0.179 -0.179 -0.178 -0.177 -0.177 -0.176 -0.176 -0.175 -0.177 -0.180 -0.182 -0.184 -0.186 -0.189 -0.191 -0.193 -0.195 -0.198 -0.200 -0.203 -0.206 -0.209 -0.212 -0.214 -0.217 -0.220 -0.223 -0.226 -0.229 -0.226 -0.219 -0.212 -0.204 -0.197 -0.190 -0.183 -0.175 -0.168 -0.155 -0.055 -0.047 -0.057 -0.068 -0.131 -0.121 -0.071 -0.021 0.029 0.079 0.134 0.215 0.307 0.399 0.492 0.584 0.676 0.571 0.304 0.038 -0.125 -0.287 -0.449 -0.611 -0.739 -0.756 -0.773 -0.782 -0.727 -0.315 0.097 0.415 0.708 0.734 0.719 0.488 0.256 0.025 -0.202 -0.207 -0.212 -0.217 -0.222 -0.226 -0.231 -0.236 -0.318 -0.482 -0.646 -0.707 -0.706 -0.705 -0.705 -0.704 -0.703 -0.702 -0.697 -0.573 -0.448 -0.324 -0.199 -0.074 0.081 0.279 0.410 0.158 -0.033 -0.058 -0.165 -0.357 -0.435 -0.462 -0.489 -0.479 -0.462 -0.445 -0.429 -0.412 -0.395 -0.378 -0.361 -0.344 -0.327 -0.310 -0.293 -0.276 -0.259 -0.242 -0.225 -0.209 -0.192 -0.175 -0.158 -0.147 -0.145 -0.142 -0.139 -0.137 -0.134 -0.131 -0.129 -0.126 -0.123 -0.121 -0.118 -0.116 -0.113 -0.110 -0.108 -0.105 -0.102 -0.100 -0.097 -0.094 -0.092 -0.089 -0.086 -0.084 -0.081 -0.074 -0.067 -0.061 -0.054 -0.047 -0.043 -0.047 -0.051 -0.054 -0.058 -0.062 -0.065 -0.069 -0.072 -0.075 -0.072 -0.068 -0.064 -0.061 -0.057 -0.053 -0.050 -0.046 -0.042 -0.039 -0.035 -0.034 -0.037 -0.041 -0.044 -0.047 -0.050 -0.054 -0.057 -0.060 -0.063 -0.067 -0.067 -0.065 -0.064 -0.062 -0.061 -0.060 -0.058 -0.057 -0.056 -0.054 -0.053 -0.051 -0.050 -0.050 -0.049 -0.049 -0.048 -0.048 -0.047 -0.047 -0.046 -0.046 -0.045 -0.045 -0.044 -0.044 -0.043 -0.043 -0.042 -0.042 -0.042 -0.041 -0.041 -0.040 -0.040 -0.039 -0.039 -0.038 -0.038 -0.037 -0.037 -0.036 -0.036 -0.035 -0.035 -0.035 -0.034 -0.034 -0.033 -0.033 -0.032 -0.032 -0.031 -0.031 -0.030 -0.030 -0.029 -0.029 -0.028 -0.028 -0.027 -0.027 -0.027 -0.026 -0.026 -0.025 -0.025 -0.024 -0.024 -0.023 -0.023 -0.022 -0.022 -0.021 -0.021 -0.020 -0.020 -0.020 -0.019 -0.019 -0.018 -0.018 -0.017 -0.017
0.039 0.029 0.019 0.009 -0.000 -0.010 -0.020 -0.030 -0.040 -0.049 -0.059 -0.069 -0.079 -0.088 -0.098 -0.108 -0.118 -0.128 -0.137 -0.147 -0.157 -0.167 -0.156 -0.136 -0.107 -0.154 -0.202 -0.217 -0.212 -0.206 -0.197 -0.180 -0.162 -0.180 -0.180 -0.179 -0.179 -0.178 -0.178 -0.178 -0.177 -0.177 -0.177 -0.176 -0.176 -0.175 -0.175 -0.175 -0.174 -0.174 -0.174 -0.173 -0.173 -0.172 -0.196 -0.230 -0.231 -0.231 -0.232 -0.232 -0.232 -0.232 -0.232 -0.232 -0.233 -0.233 -0.233 -0.233 -0.233 -0.234 -0.234 -0.234 -0.234 -0.234 -0.235 -0.235 -0.235 -0.235 -0.235 -0.235 -0.236 -0.235 -0.235 -0.234 -0.234 -0.233 -0.233 -0.232 -0.232 -0.231 -0.231 -0.230 -0.230 -0.230 -0.229 -0.228 -0.228 -0.227 -0.227 -0.226 -0.225 -0.225 -0.224 -0.223 -0.223 -0.222 -0.222 -0.221 -0.220 -0.220 -0.219 -0.218 -0.218 -0.217 -0.217 -0.216 -0.215 -0.215 -0.214 -0.213 -0.213 -0.212 -0.212 -0.211 -0.210 -0.210 -0.209 -0.208 -0.208 -0.207 -0.207 -0.206 -0.205 -0.205 -0.204 -0.203 -0.203 -0.202 -0.202 -0.201 -0.200 -0.200 -0.199 -0.198 -0.198 -0.197 -0.197 -0.196 -0.195 -0.195 -0.194 -0.193 -0.193 -0.192 -0.192 -0.191 -0.190 -0.190 -0.189 -0.188 -0.188 -0.187 -0.187 -0.186 -0.185 -0.185 -0.184 -0.183 -0.183 -0.182 -0.182 -0.181 -0.180 -0.180 -0.179 -0.178 -0.178 -0.177 -0.177 -0.176 -0.175 -0.178 -0.180 -0.182 -0.184 -0.187 -0.189 -0.191 -0.193 -0.196 -0.198 -0.201 -0.204 -0.207 -0.209 -0.212 -0.215 -0.218 -0.221 -0.224 -0.227 -0.220 -0.212 -0.205 -0.198 -0.191 -0.183 -0.176 -0.169 -0.162 -0.154 -0.145 -0.162 -0.145 -0.143 -0.154 -0.224 -0.236 -0.186 -0.136 -0.086 -0.028 0.053 0.142 0.234 0.326 0.418 0.510 0.603 0.695 0.491 0.290 0.128 -0.034 -0.196 -0.358 -0.520 -0.682 -0.771 -0.782 -0.392 -0.099 0.194 0.487 0.727 0.720 0.713 0.706 0.617 0.386 0.155 -0.000 -0.005 -0.010 -0.015 -0.020 -0.025 -0.134 -0.298 -0.461 -0.625 -0.699 -0.698 -0.697 -0.696 -0.696 -0.695 -0.694 -0.581 -0.457 -0.332 -0.208 -0.083 0.041 0.166 0.290 0.455 0.276 0.184 -0.000 -0.070 -0.263 -0.324 -0.351 -0.378 -0.406 -0.433 -0.460 -0.453 -0.436 -0.419 -0.402 -0.385 -0.368 -0.352 -0.335 -0.318 -0.301 -0.284 -0.267 -0.250 -0.233 -0.216 -0.199 -0.182 -0.165 -0.149 -0.142 -0.140 -0.137 -0.134 -0.132 -0.129 -0.126 -0.124 -0.121 -0.118 -0.116 -0.113 -0.111 -0.108 -0.105 -0.103 -0.100 -0.097 -0.095 -0.092 -0.089 -0.087 -0.084 -0.081 -0.074 -0.068 -0.061 -0.054 -0.047 -0.048 -0.051 -0.055 -0.059 -0.062 -0.066 -0.069 -0.073 -0.077 -0.079 -0.075 -0.071 -0.068 -0.064 -0.060 -0.057 -0.053 -0.049 -0.046 -0.042 -0.038 -0.036 -0.039 -0.043 -0.046 -0.049 -0.052 -0.056 -0.059 -0.062 -0.065 -0.068 -0.067 -0.066 -0.064 -0.063 -0.061 -0.060 -0.059 -0.057 -0.056 -0.054 -0.053 -0.052 -0.050 -0.050 -0.049 -0.049 -0.048 -0.048 -0.047 -0.047 -0.047 -0.046 -0.046 -0.045 -0.045 -0.044 -0.044 -0.043 -0.043 -0.042 -0.042 -0.041 -0.041 -0.040 -0.040 -0.040 -0.039 -0.039 -0.038 -0.038 -0.037 -0.037 -0.036 -0.036 -0.035 -0.035 -0.034 -0.034 -0.033 -0.033 -0.032 -0.032 -0.032 -0.031 -0.031 -0.030 -0.030 -0.029 -0.029 -0.028 -0.028 -0.027 -0.027 -0.026 -0.026 -0.025 -0.025 -0.025 -0.024 -0.024 -0.023 -0.023 -0.022 -0.022 -0.021 -0.021 -0.020 -0.020 -0.019 -0.019 -0.018 -0.018 -0.017 -0.017
0.043 0.033 0.023 0.013 0.004 -0.006 -0.016 -0.026 -0.036 -0.045 -0.055 -0.065 -0.075 -0.084 -0.094 -0.104 -0.114 -0.124 -0.133 -0.143 -0.153 -0.158 -0.138 -0.118 -0.098 -0.137 -0.186 -0.217 -0.211 -0.206 -0.200 -0.193 -0.181 -0.186 -0.185 -0.185 -0.185 -0.184 -0.184 -0.183 -0.183 -0.183 -0.182 -0.182 -0.182 -0.181 -0.181 -0.180 -0.180 -0.180 -0.179 -0.179 -0.179 -0.178 -0.178 -0.177 -0.204 -0.232 -0.232 -0.232 -0.232 -0.233 -0.233 -0.233 -0.233 -0.233 -0.234 -0.234 -0.234 -0.234 -0.234 -0.234 -0.235 -0.235 -0.235 -0.235 -0.235 -0.236 -0.236 -0.236 -0.236 -0.236 -0.235 -0.235 -0.234 -0.234 -0.233 -0.233 -0.232 -0.232 -0.231 -0.231 -0.230 -0.230 -0.229 -0.229 -0.228 -0.227 -0.227 -0.226 -0.226 -0.225 -0.224 -0.224 -0.223 -0.222 -0.222 -0.221 -0.221 -0.220 -0.219 -0.219 -0.218 -0.217 -0.217 -0.216 -0.216 -0.215 -0.214 -0.214 -0.213 -0.212 -0.212 -0.211 -0.211 -0.210 -0.209 -0.209 -0.208 -0.207 -0.207 -0.206 -0.206 -0.205 -0.204 -0.204 -0.203 -0.202 -0.202 -0.201 -0.201 -0.200 -0.199 -0.199 -0.198 -0.197 -0.197 -0.196 -0.196 -0.195 -0.194 -0.194 -0.193 -0.192 -0.192 -0.191 -0.191 -0.190 -0.189 -0.189 -0.188 -0.187 -0.187 -0.186 -0.186 -0.185 -0.184 -0.184 -0.183 -0.182 -0.182 -0.181 -0.181 -0.180 -0.179 -0.179 -0.178 -0.177 -0.177 -0.176 -0.176 -0.178 -0.180 -0.183 -0.185 -0.187 -0.189 -0.192 -0.194 -0.196 -0.199 -0.202 -0.204 -0.207 -0.210 -0.213 -0.216 -0.219 -0.222 -0.220 -0.213 -0.206 -0.199 -0.191 -0.184 -0.177 -0.169 -0.162 -0.155 -0.145 -0.133 -0.101 -0.022 -0.219 -0.235 -0.239 -0.316 -0.350 -0.300 -0.250 -0.191 -0.110 -0.023 0.069 0.161 0.253 0.345 0.437 0.529 0.622 0.666 0.493 0.320 0.147 -0.026 -0.199 -0.372 -0.545 -0.718 -0.613 -0.320 -0.027 0.266 0.558 0.712 0.706 0.699 0.692 0.685 0.679 0.515 0.284 0.201 0.196 0.192 0.187 0.050 -0.113 -0.277 -0.441 -0.604 -0.690 -0.690 -0.689 -0.688 -0.687 -0.686 -0.590 -0.465 -0.341 -0.216 -0.092 0.033 0.157 0.282 0.406 0.460 0.268 0.084 -0.100 0.024 -0.169 -0.213 -0.241 -0.268 -0.295 -0.322 -0.349 -0.376 -0.404 -0.431 -0.427 -0.410 -0.393 -0.376 -0.359 -0.342 -0.325 -0.308 -0.292 -0.275 -0.258 -0.241 -0.224 -0.207 -0.190 -0.173 -0.156 -0.140 -0.137 -0.135 -0.132 -0.129 -0.127 -0.124 -0.121 -0.119 -0.116 -0.113 -0.111 -0.108 -0.106 -0.103 -0.100 -0.098 -0.095 -0.092 -0.090 -0.087 -0.084 -0.082 -0.075 -0.068 -0.061 -0.055 -0.048 -0.052 -0.056 -0.059 -0.063 -0.067 -0.070 -0.074 -0.077 -0.081 -0.082 -0.078 -0.075 -0.071 -0.067 -0.064 -0.060 -0.056 -0.053 -0.049 -0.045 -0.042 -0.038 -0.041 -0.045 -0.048 -0.051 -0.054 -0.058 -0.061 -0.064 -0.067 -0.069 -0.067 -0.066 -0.064 -0.063 -0.062 -0.060 -0.059 -0.058 -0.056 -0.055 -0.053 -0.052 -0.051 -0.050 -0.050 -0.049 -0.049 -0.048 -0.048 -0.047 -0.047 -0.046 -0.046 -0.045 -0.045 -0.045 -0.044 -0.044 -0.043 -0.043 -0.042 -0.042 -0.041 -0.041 -0.040 -0.040 -0.039 -0.039 -0.038 -0.038 -0.037 -0.037 -0.037 -0.036 -0.036 -0.035 -0.035 -0.034 -0.034 -0.033 -0.033 -0.032 -0.032 -0.031 -0.031 -0.030 -0.030 -0.030 -0.029 -0.029 -0.028 -0.028 -0.027 -0.027 -0.026 -0.026 -0.025 -0.025 -0.024 -0.024 -0.023 -0.023 -0.022 -0.022 -0.022 -0.021 -0.021 -0.020 -0.020 -0.019 -0.019 -0.018 -0.018 -0.017
0.047 0.037 0.027 0.017 0.008 -0.002 -0.012 -0.022 -0.031 -0.041 -0.051 -0.061 -0.071 -0.080 -0.090 -0.100 -0.110 -0.120 -0.129 -0.139 -0.149 -0.141 -0.121 -0.100 -0.076 -0.128 -0.171 -0.217 -0.211 -0.205 -0.191 -0.164 -0.192 -0.191 -0.191 -0.191 -0.190 -0.190 -0.189 -0.189 -0.189 -0.188 -0.188 -0.188 -0.187 -0.187 -0.187 -0.186 -0.186 -0.185 -0.185 -0.185 -0.184 -0.184 -0.184 -0.183 -0.183 -0.182 -0.212 -0.233 -0.233 -0.233 -0.233 -0.233 -0.234 -0.234 -0.234 -0.234 -0.234 -0.235 -0.235 -0.235 -0.235 -0.235 -0.235 -0.236 -0.236 -0.236 -0.236 -0.236 -0.237 -0.236 -0.236 -0.235 -0.235 -0.234 -0.234 -0.233 -0.233 -0.232 -0.232 -0.231 -0.231 -0.230 -0.230 -0.229 -0.228 -0.228 -0.227 -0.227 -0.226 -0.225 -0.225 -0.224 -0.223 -0.223 -0.222 -0.222 -0.221 -0.220 -0.220 -0.219 -0.218 -0.218 -0.217 -0.217 -0.216 -0.215 -0.215 -0.214 -0.213 -0.213 -0.212 -0.212 -0.211 -0.210 -0.210 -0.209 -0.208 -0.208 -0.207 -0.207 -0.206 -0.205 -0.205 -0.204 -0.203 -0.203 -0.202 -0.202 -0.201 -0.200 -0.200 -0.199 -0.198 -0.198 -0.197 -0.197 -0.196 -0.195 -0.195 -0.194 -0.193 -0.193 -0.192 -0.192 -0.191 -0.190 -0.190 -0.189 -0.188 -0.188 -0.187 -0.187 -0.186 -0.185 -0.185 -0.184 -0.183 -0.183 -0.182 -0.182 -0.181 -0.180 -0.180 -0.179 -0.178 -0.178 -0.177 -0.177 -0.176 -0.178 -0.181 -0.183 -0.185 -0.187 -0.190 -0.192 -0.194 -0.197 -0.199 -0.202 -0.205 -0.208 -0.211 -0.214 -0.217 -0.220 -0.214 -0.206 -0.199 -0.192 -0.185 -0.177 -0.170 -0.163 -0.156 -0.145 -0.133 -0.121 -0.110 -0.056 0.055 0.029 -0.168 -0.325 -0.409 -0.465 -0.415 -0.353 -0.272 -0.189 -0.097 -0.005 0.088 0.180 0.272 0.346 0.372 0.398 0.475 0.417 0.244 0.071 -0.102 -0.275 -0.448 -0.621 -0.733 -0.492 -0.248 0.045 0.337 0.630 0.698 0.691 0.685 0.678 0.671 0.664 0.658 0.645 0.414 0.403 0.398 0.234 0.071 -0.093 -0.256 -0.420 -0.583 -0.682 -0.681 -0.680 -0.680 -0.679 -0.599 -0.474 -0.350 -0.225 -0.101 0.024 0.149 0.259 0.296 0.333 0.370 0.168 -0.016 -0.200 0.118 -0.075 -0.103 -0.130 -0.157 -0.184 -0.211 -0.239 -0.266 -0.293 -0.320 -0.347 -0.375 -0.402 -0.401 -0.384 -0.367 -0.350 -0.333 -0.316 -0.299 -0.282 -0.265 -0.248 -0.232 -0.215 -0.198 -0.181 -0.164 -0.147 -0.135 -0.132 -0.130 -0.127 -0.124 -0.122 -0.119 -0.116 -0.114 -0.111 -0.109 -0.106 -0.103 -0.101 -0.098 -0.095 -0.093 -0.090 -0.087 -0.085 -0.082 -0.075 -0.068 -0.062 -0.055 -0.053 -0.056 -0.060 -0.064 -0.067 -0.071 -0.074 -0.078 -0.082 -0.085 -0.085 -0.082 -0.078 -0.074 -0.071 -0.067 -0.063 -0.060 -0.056 -0.052 -0.049 -0.045 -0.041 -0.043 -0.046 -0.050 -0.053 -0.056 -0.060 -0.063 -0.066 -0.069 -0.069 -0.068 -0.066 -0.065 -0.063 -0.062 -0.061 -0.059 -0.058 -0.056 -0.055 -0.054 -0.052 -0.051 -0.050 -0.050 -0.050 -0.049 -0.049 -0.048 -0.048 -0.047 -0.047 -0.046 -0.046 -0.045 -0.045 -0.044 -0.044 -0.043 -0.043 -0.042 -0.042 -0.042 -0.041 -0.041 -0.040 -0.040 -0.039 -0.039 -0.038 -0.038 -0.037 -0.037 -0.036 -0.036 -0.035 -0.035 -0.035 -0.034 -0.034 -0.033 -0.033 -0.032 -0.032 -0.031 -0.031 -0.030 -0.030 -0.029 -0.029 -0.028 -0.028 -0.027 -0.027 -0.027 -0.026 -0.026 -0.025 -0.025 -0.024 -0.024 -0.023 -0.023 -0.022 -0.022 -0.021 -0.021 -0.020 -0.020 -0.020 -0.019 -0.019 -0.018 -0.018
0.051 0.041 0.031 0.021 0.012 0.002 -0.008 -0.018 -0.027 -0.037 -0.047 -0.057 -0.067 -0.076 -0.086 -0.096 -0.106 -0.116 -0.125 -0.135 -0.143 -0.123 -0.103 -0.083 -0.064 -0.120 -0.165 -0.208 -0.157 -0.076 -0.075 -0.156 -0.198 -0.197 -0.197 -0.197 -0.196 -0.196 -0.195 -0.195 -0.194 -0.194 -0.194 -0.193 -0.193 -0.193 -0.192 -0.192 -0.191 -0.191 -0.191 -0.190 -0.190 -0.190 -0.189 -0.189 -0.188 -0.188 -0.188 -0.187 -0.220 -0.234 -0.234 -0.234 -0.234 -0.234 -0.234 -0.235 -0.235 -0.235 -0.235 -0.235 -0.236 -0.236 -0.236 -0.236 -0.236 -0.237 -0.237 -0.237 -0.237 -0.237 -0.236 -0.236 -0.235 -0.235 -0.234 -0.234 -0.233 -0.233 -0.232 -0.232 -0.231 -0.231 -0.230 -0.229 -0.229 -0.228 -0.227 -0.227 -0.226 -0.226 -0.225 -0.224 -0.224 -0.223 -0.222 -0.222 -0.221 -0.221 -0.220 -0.219 -0.219 -0.218 -0.217 -0.217 -0.216 -0.216 -0.215 -0.214 -0.214 -0.213 -0.212 -0.212 -0.211 -0.211 -0.210 -0.209 -0.209 -0.208 -0.207 -0.207 -0.206 -0.206 -0.205 -0.204 -0.204 -0.203 -0.202 -0.202 -0.201 -0.201 -0.200 -0.199 -0.199 -0.198 -0.197 -0.197 -0.196 -0.196 -0.195 -0.194 -0.194 -0.193 -0.192 -0.192 -0.191 -0.191 -0.190 -0.189 -0.189 -0.188 -0.187 -0.187 -0.186 -0.186 -0.185 -0.184 -0.184 -0.183 -0.182 -0.182 -0.181 -0.181 -0.180 -0.179 -0.179 -0.178 -0.177 -0.177 -0.176 -0.179 -0.181 -0.183 -0.185 -0.188 -0.190 -0.192 -0.194 -0.197 -0.200 -0.203 -0.206 -0.209 -0.212 -0.215 -0.214 -0.207 -0.200 -0.193 -0.185 -0.178 -0.171 -0.164 -0.156 -0.144 -0.133 -0.121 -0.110 -0.098 -0.087 -0.011 0.100 0.211 0.080 -0.151 -0.461 -0.580 -0.516 -0.435 -0.354 -0.262 -0.170 -0.078 0.011 0.037 0.063 0.088 0.114 0.140 0.244 0.341 0.168 -0.005 -0.178 -0.351 -0.524 -0.697 -0.608 -0.368 -0.128 0.116 0.409 0.691 0.684 0.677 0.670 0.664 0.657 0.650 0.644 0.637 0.630 0.582 0.419 0.255 0.092 -0.072 -0.236 -0.399 -0.563 -0.674 -0.673 -0.672 -0.671 -0.607 -0.483 -0.358 -0.234 -0.109 0.015 0.095 0.132 0.169 0.206 0.243 0.280 0.130 -0.116 -0.300 0.212 0.035 0.008 -0.019 -0.046 -0.074 -0.101 -0.128 -0.155 -0.182 -0.210 -0.237 -0.264 -0.291 -0.318 -0.346 -0.373 -0.375 -0.358 -0.341 -0.324 -0.307 -0.290 -0.273 -0.256 -0.239 -0.222 -0.205 -0.188 -0.172 -0.155 -0.138 -0.130 -0.127 -0.125 -0.122 -0.119 -0.117 -0.114 -0.111 -0.109 -0.106 -0.104 -0.101 -0.098 -0.096 -0.093 -0.090 -0.088 -0.085 -0.082 -0.075 -0.069 -0.062 -0.055 -0.057 -0.061 -0.064 -0.068 -0.072 -0.075 -0.079 -0.082 -0.086 -0.090 -0.089 -0.085 -0.081 -0.078 -0.074 -0.070 -0.067 -0.063 -0.059 -0.056 -0.052 -0.048 -0.045 -0.045 -0.048 -0.052 -0.055 -0.058 -0.062 -0.065 -0.068 -0.071 -0.069 -0.068 -0.066 -0.065 -0.064 -0.062 -0.061 -0.060 -0.058 -0.057 -0.055 -0.054 -0.053 -0.051 -0.051 -0.050 -0.050 -0.049 -0.049 -0.048 -0.048 -0.047 -0.047 -0.047 -0.046 -0.046 -0.045 -0.045 -0.044 -0.044 -0.043 -0.043 -0.042 -0.042 -0.041 -0.041 -0.040 -0.040 -0.040 -0.039 -0.039 -0.038 -0.038 -0.037 -0.037 -0.036 -0.036 -0.035 -0.035 -0.034 -0.034 -0.033 -0.033 -0.032 -0.032 -0.032 -0.031 -0.031 -0.030 -0.030 -0.029 -0.029 -0.028 -0.028 -0.027 -0.027 -0.026 -0.026 -0.025 -0.025 -0.025 -0.024 -0.024 -0.023 -0.023 -0.022 -0.022 -0.021 -0.021 -0.020 -0.020 -0.019 -0.019 -0.018 -0.018
0.055 0.045 0.035 0.026 0.016 0.006 -0.004 -0.014 -0.023 -0.033 -0.043 -0.053 -0.063 -0.072 -0.082 -0.092 -0.102 -0.112 -0.121 -0.131 -0.125 -0.105 -0.085 -0.053 -0.053 -0.108 -0.159 -0.202 -0.182 -0.101 -0.093 -0.174 -0.204 -0.204 -0.203 -0.203 -0.202 -0.202 -0.201 -0.201 -0.200 -0.200 -0.199 -0.199 -0.199 -0.198 -0.198 -0.198 -0.197 -0.197 -0.196 -0.196 -0.196 -0.195 -0.195 -0.195 -0.194 -0.194 -0.193 -0.193 -0.193 -0.194 -0.228 -0.234 -0.235 -0.235 -0.235 -0.235 -0.235 -0.235 -0.236 -0.236 -0.236 -0.236 -0.236 -0.237 -0.237 -0.237 -0.237 -0.237 -0.238 -0.237 -0.237 -0.236 -0.236 -0.235 -0.235 -0.234 -0.234 -0.233 -0.233 -0.232 -0.232 -0.231 -0.230 -0.230 -0.229 -0.228 -0.228 -0.227 -0.227 -0.226 -0.225 -0.225 -0.224 -0.223 -0.223 -0.222 -0.222 -0.221 -0.220 -0.220 -0.219 -0.218 -0.218 -0.217 -0.217 -0.216 -0.215 -0.215 -0.214 -0.213 -0.213 -0.212 -0.212 -0.211 -0.210 -0.210 -0.209 -0.208 -0.208 -0.207 -0.207 -0.206 -0.205 -0.205 -0.204 -0.203 -0.203 -0.202 -0.202 -0.201 -0.200 -0.200 -0.199 -0.198 -0.198 -0.197 -0.197 -0.196 -0.195 -0.195 -0.194 -0.193 -0.193 -0.192 -0.192 -0.191 -0.190 -0.190 -0.189 -0.188 -0.188 -0.187 -0.187 -0.186 -0.185 -0.185 -0.184 -0.183 -0.183 -0.182 -0.182 -0.181 -0.180 -0.180 -0.179 -0.178 -0.178 -0.177 -0.177 -0.179 -0.181 -0.183 -0.186 -0.188 -0.190 -0.192 -0.195 -0.198 -0.201 -0.204 -0.207 -0.210 -0.213 -0.208 -0.201 -0.193 -0.186 -0.179 -0.172 -0.164 -0.156 -0.144 -0.133 -0.121 -0.110 -0.098 -0.087 -0.075 -0.063 0.034 0.145 0.256 0.329 0.025 -0.309 -0.626 -0.597 -0.516 -0.427 -0.335 -0.298 -0.272 -0.247 -0.221 -0.195 -0.169 -0.143 -0.118 0.013 0.161 0.092 -0.081 -0.254 -0.427 -0.600 -0.724 -0.484 -0.244 -0.004 0.236 0.481 0.676 0.670 0.663 0.656 0.634 0.596 0.558 0.520 0.482 0.450 0.542 0.415 0.276 0.112 -0.051 -0.215 -0.378 -0.542 -0.665 -0.664 -0.664 -0.616 -0.492 -0.367 -0.243 -0.118 -0.069 -0.032 0.005 0.042 0.079 0.116 0.153 0.189 0.145 -0.216 -0.400 0.129 0.146 0.119 0.091 0.064 0.037 0.010 -0.017 -0.045 -0.072 -0.099 -0.126 -0.153 -0.181 -0.208 -0.235 -0.262 -0.289 -0.317 -0.344 -0.348 -0.331 -0.315 -0.298 -0.281 -0.264 -0.247 -0.230 -0.213 -0.196 -0.179 -0.162 -0.145 -0.128 -0.125 -0.122 -0.120 -0.117 -0.114 -0.112 -0.109 -0.106 -0.104 -0.101 -0.099 -0.096 -0.093 -0.091 -0.088 -0.085 -0.082 -0.076 -0.069 -0.062 -0.058 -0.061 -0.065 -0.069 -0.072 -0.076 -0.079 -0.083 -0.087 -0.090 -0.094 -0.092 -0.088 -0.085 -0.081 -0.077 -0.074 -0.070 -0.066 -0.063 -0.059 -0.055 -0.052 -0.048 -0.047 -0.050 -0.054 -0.057 -0.060 -0.064 -0.067 -0.070 -0.071 -0.070 -0.068 -0.067 -0.065 -0.064 -0.063 -0.061 -0.060 -0.058 -0.057 -0.056 -0.054 -0.053 -0.052 -0.051 -0.051 -0.050 -0.050 -0.049 -0.049 -0.048 -0.048 -0.047 -0.047 -0.046 -0.046 -0.045 -0.045 -0.045 -0.044 -0.044 -0.043 -0.043 -0.042 -0.042 -0.041 -0.041 -0.040 -0.040 -0.039 -0.039 -0.038 -0.038 -0.037 -0.037 -0.037 -0.036 -0.036 -0.035 -0.035 -0.034 -0.034 -0.033 -0.033 -0.032 -0.032 -0.031 -0.031 -0.030 -0.030 -0.030 -0.029 -0.029 -0.028 -0.028 -0.027 -0.027 -0.026 -0.026 -0.025 -0.025 -0.024 -0.024 -0.023 -0.023 -0.022 -0.022 -0.022 -0.021 -0.021 -0.020 -0.020 -0.019 -0.019 -0.018
0.059 0.049 0.039 0.030 0.020 0.010 0.000 -0.010 -0.019 -0.029 -0.039 -0.049 -0.059 -0.068 -0.078 -0.088 -0.098 -0.108 -0.117 -0.127 -0.108 -0.088 -0.067 -0.023 -0.041 -0.096 -0.152 -0.195 -0.206 -0.125 -0.110 -0.192 -0.210 -0.210 -0.209 -0.209 -0.208 -0.208 -0.207 -0.207 -0.206 -0.206 -0.205 -0.205 -0.205 -0.204 -0.204 -0.203 -0.203 -0.203 -0.202 -0.202 -0.201 -0.201 -0.201 -0.200 -0.200 -0.200 -0.199 -0.199 -0.198 -0.198 -0.198 -0.202 -0.235 -0.235 -0.235 -0.236 -0.236 -0.236 -0.236 -0.236 -0.237 -0.237 -0.237 -0.237 -0.237 -0.237 -0.238 -0.238 -0.238 -0.238 -0.237 -0.237 -0.236 -0.236 -0.235 -0.235 -0.234 -0.234 -0.233 -0.232 -0.232 -0.231 -0.231 -0.230 -0.229 -0.229 -0.228 -0.227 -0.227 -0.226 -0.226 -0.225 -0.224 -0.224 -0.223 -0.222 -0.222 -0.221 -0.221 -0.220 -0.219 -0.219 -0.218 -0.217 -0.217 -0.216 -0.216 -0.215 -0.214 -0.214 -0.213 -0.212 -0.212 -0.211 -0.211 -0.210 -0.209 -0.209 -0.208 -0.207 -0.207 -0.206 -0.206 -0.205 -0.204 -0.204 -0.203 -0.202 -0.202 -0.201 -0.201 -0.200 -0.199 -0.199 -0.198 -0.197 -0.197 -0.196 -0.196 -0.195 -0.194 -0.194 -0.193 -0.192 -0.192 -0.191 -0.191 -0.190 -0.189 -0.189 -0.188 -0.187 -0.187 -0.186 -0.186 -0.185 -0.184 -0.184 -0.183 -0.182 -0.182 -0.181 -0.181 -0.180 -0.179 -0.179 -0.178 -0.177 -0.177 -0.179 -0.182 -0.184 -0.186 -0.188 -0.191 -0.193 -0.196 -0.199 -0.202 -0.205 -0.208 -0.209 -0.201 -0.194 -0.187 -0.180 -0.172 -0.165 -0.156 -0.144 -0.133 -0.121 -0.110 -0.098 -0.086 -0.075 -0.063 -0.052 -0.032 0.079 0.190 0.300 0.296 0.078 -0.243 -0.569 -0.602 -0.627 -0.607 -0.582 -0.556 -0.530 -0.504 -0.479 -0.453 -0.427 -0.401 -0.366 -0.218 -0.070 0.015 -0.158 -0.330 -0.503 -0.676 -0.600 -0.360 -0.120 0.120 0.360 0.589 0.563 0.525 0.487 0.448 0.410 0.372 0.334 0.296 0.258 0.580 0.488 0.361 0.233 0.106 -0.031 -0.194 -0.358 -0.521 -0.657 -0.656 -0.625 -0.500 -0.376 -0.270 -0.233 -0.196 -0.159 -0.122 -0.085 -0.048 -0.012 0.025 0.062 0.099 0.136 -0.227 -0.500 0.035 0.256 0.229 0.202 0.175 0.148 0.120 0.093 0.066 0.039 0.012 -0.016 -0.043 -0.070 -0.097 -0.124 -0.152 -0.179 -0.206 -0.233 -0.260 -0.287 -0.315 -0.322 -0.305 -0.288 -0.271 -0.255 -0.238 -0.221 -0.204 -0.187 -0.170 -0.153 -0.136 -0.123 -0.120 -0.117 -0.115 -0.112 -0.109 -0.107 -0.104 -0.102 -0.099 -0.096 -0.094 -0.091 -0.088 -0.086 -0.083 -0.076 -0.069 -0.063 -0.062 -0.066 -0.069 -0.073 -0.077 -0.080 -0.084 -0.087 -0.091 -0.095 -0.098 -0.095 -0.092 -0.088 -0.084 -0.081 -0.077 -0.073 -0.070 -0.066 -0.062 -0.059 -0.055 -0.052 -0.049 -0.052 -0.056 -0.059 -0.062 -0.066 -0.069 -0.072 -0.071 -0.070 -0.069 -0.067 -0.066 -0.064 -0.063 -0.062 -0.060 -0.059 -0.057 -0.056 -0.055 -0.053 -0.052 -0.051 -0.051 -0.050 -0.050 -0.050 -0.049 -0.049 -0.048 -0.048 -0.047 -0.047 -0.046 -0.046 -0.045 -0.045 -0.044 -0.044 -0.043 -0.043 -0.042 -0.042 -0.042 -0.041 -0.041 -0.040 -0.040 -0.039 -0.039 -0.038 -0.038 -0.037 -0.037 -0.036 -0.036 -0.035 -0.035 -0.035 -0.034 -0.034 -0.033 -0.033 -0.032 -0.032 -0.031 -0.031 -0.030 -0.030 -0.029 -0.029 -0.028 -0.028 -0.027 -0.027 -0.027 -0.026 -0.026 -0.025 -0.025 -0.024 -0.024 -0.023 -0.023 -0.022 -0.022 -0.021 -0.021 -0.020 -0.020 -0.020 -0.019 -0.019
0.063 0.053 0.043 0.034 0.024 0.014 0.004 -0.006 -0.015 -0.025 -0.035 -0.045 -0.055 -0.064 -0.074 -0.084 -0.094 -0.104 -0.113 -0.110 -0.090 -0.070 -0.037 0.006 -0.029 -0.085 -0.140 -0.189 -0.231 -0.149 -0.128 -0.210 -0.216 -0.216 -0.215 -0.215 -0.214 -0.214 -0.213 -0.213 -0.212 -0.212 -0.212 -0.211 -0.211 -0.210 -0.210 -0.209 -0.209 -0.208 -0.208 -0.208 -0.207 -0.207 -0.206 -0.206 -0.206 -0.205 -0.205 -0.205 -0.204 -0.204 -0.203 -0.203 -0.203 -0.210 -0.236 -0.236 -0.236 -0.236 -0.237 -0.237 -0.237 -0.237 -0.237 -0.238 -0.238 -0.238 -0.238 -0.238 -0.238 -0.238 -0.238 -0.237 -0.237 -0.236 -0.236 -0.235 -0.235 -0.234 -0.233 -0.233 -0.232 -0.232 -0.231 -0.230 -0.230 -0.229 -0.228 -0.228 -0.227 -0.227 -0.226 -0.225 -0.225 -0.224 -0.223 -0.223 -0.222 -0.222 -0.221 -0.220 -0.220 -0.219 -0.218 -0.218 -0.217 -0.217 -0.216 -0.215 -0.215 -0.214 -0.213 -0.213 -0.212 -0.212 -0.211 -0.210 -0.210 -0.209 -0.208 -0.208 -0.207 -0.207 -0.206 -0.205 -0.205 -0.204 -0.203 -0.203 -0.202 -0.202 -0.201 -0.200 -0.200 -0.199 -0.198 -0.198 -0.197 -0.197 -0.196 -0.195 -0.195 -0.194 -0.193 -0.193 -0.192 -0.192 -0.191 -0.190 -0.190 -0.189 -0.188 -0.188 -0.187 -0.187 -0.186 -0.185 -0.185 -0.184 -0.183 -0.183 -0.182 -0.182 -0.181 -0.180 -0.180 -0.179 -0.178 -0.178 -0.177 -0.180 -0.182 -0.184 -0.186 -0.189 -0.191 -0.194 -0.197 -0.200 -0.203 -0.205 -0.202 -0.195 -0.187 -0.180 -0.173 -0.166 -0.156 -0.144 -0.133 -0.121 -0.109 -0.098 -0.086 -0.075 -0.063 -0.052 -0.040 -0.029 0.013 0.124 0.235 0.345 0.205 0.024 -0.225 -0.510 0.148 -0.632 -0.635 -0.638 -0.642 -0.645 -0.648 -0.651 -0.654 -0.657 -0.659 -0.597 -0.449 -0.301 -0.153 -0.234 -0.407 -0.580 -0.716 -0.476 -0.236 0.004 0.244 0.426 0.592 0.524 0.301 0.263 0.225 0.187 0.149 0.111 0.073 0.317 0.562 0.434 0.307 0.179 0.052 -0.076 -0.203 -0.337 -0.501 -0.648 -0.634 -0.509 -0.434 -0.397 -0.360 -0.323 -0.286 -0.249 -0.213 -0.176 -0.139 -0.102 -0.065 -0.028 0.009 0.046 -0.212 -0.599 -0.082 0.323 0.326 0.313 0.285 0.258 0.231 0.204 0.177 0.149 0.122 0.095 0.068 0.041 0.013 -0.014 -0.041 -0.068 -0.095 -0.122 -0.150 -0.177 -0.204 -0.231 -0.258 -0.286 -0.296 -0.279 -0.262 -0.245 -0.228 -0.211 -0.195 -0.178 -0.161 -0.144 -0.127 -0.118 -0.115 -0.112 -0.110 -0.107 -0.104 -0.102 -0.099 -0.097 -0.094 -0.091 -0.089 -0.086 -0.083 -0.076 -0.070 -0.063 -0.066 -0.070 -0.074 -0.077 -0.081 -0.084 -0.088 -0.092 -0.095 -0.099 -0.102 -0.099 -0.095 -0.091 -0.088 -0.084 -0.080 -0.077 -0.073 -0.070 -0.066 -0.062 -0.059 -0.055 -0.051 -0.054 -0.058 -0.061 -0.064 -0.068 -0.071 -0.073 -0.072 -0.070 -0.069 -0.067 -0.066 -0.065 -0.063 -0.062 -0.060 -0.059 -0.058 -0.056 -0.055 -0.054 -0.052 -0.052 -0.051 -0.051 -0.050 -0.050 -0.049 -0.049 -0.048 -0.048 -0.047 -0.047 -0.047 -0.046 -0.046 -0.045 -0.045 -0.044 -0.044 -0.043 -0.043 -0.042 -0.042 -0.041 -0.041 -0.040 -0.040 -0.040 -0.039 -0.039 -0.038 -0.038 -0.037 -0.037 -0.036 -0.036 -0.035 -0.035 -0.034 -0.034 -0.033 -0.033 -0.032 -0.032 -0.032 -0.031 -0.031 -0.030 -0.030 -0.029 -0.029 -0.028 -0.028 -0.027 -0.027 -0.026 -0.026 -0.025 -0.025 -0.025 -0.024 -0.024 -0.023 -0.023 -0.022 -0.022 -0.021 -0.021 -0.020 -0.020 -0.019 -0.019
0.067 0.057 0.047 0.038 0.028 0.018 0.008 -0.002 -0.011 -0.021 -0.031 -0.041 -0.051 -0.060 -0.070 -0.080 -0.090 -0.100 -0.109 -0.093 -0.072 -0.051 -0.008 0.036 -0.017 -0.073 -0.128 -0.183 -0.226 -0.174 -0.146 -0.223 -0.222 -0.222 -0.221 -0.221 -0.220 -0.220 -0.220 -0.219 -0.219 -0.218 -0.218 -0.217 -0.217 -0.216 -0.216 -0.215 -0.215 -0.214 -0.214 -0.213 -0.213 -0.213 -0.212 -0.212 -0.211 -0.211 -0.211 -0.210 -0.210 -0.210 -0.209 -0.209 -0.208 -0.208 -0.208 -0.218 -0.237 -0.237 -0.237 -0.237 -0.237 -0.238 -0.238 -0.238 -0.238 -0.238 -0.239 -0.239 -0.239 -0.238 -0.238 -0.238 -0.237 -0.237 -0.236 -0.236 -0.235 -0.234 -0.234 -0.233 -0.232 -0.232 -0.231 -0.231 -0.230 -0.229 -0.229 -0.228 -0.227 -0.227 -0.226 -0.226 -0.225 -0.224 -0.224 -0.223 -0.222 -0.222 -0.221 -0.221 -0.220 -0.219 -0.219 -0.218 -0.217 -0.217 -0.216 -0.216 -0.215 -0.214 -0.214 -0.213 -0.212 -0.212 -0.211 -0.211 -0.210 -0.209 -0.209 -0.208 -0.207 -0.207 -0.206 -0.206 -0.205 -0.204 -0.204 -0.203 -0.202 -0.202 -0.201 -0.201 -0.200 -0.199 -0.199 -0.198 -0.197 -0.197 -0.196 -0.196 -0.195 -0.194 -0.194 -0.193 -0.192 -0.192 -0.191 -0.191 -0.190 -0.189 -0.189 -0.188 -0.187 -0.187 -0.186 -0.186 -0.185 -0.184 -0.184 -0.183 -0.182 -0.182 -0.181 -0.181 -0.180 -0.179 -0.179 -0.178 -0.178 -0.180 -0.182 -0.184 -0.187 -0.189 -0.192 -0.195 -0.198 -0.200 -0.203 -0.195 -0.188 -0.181 -0.174 -0.166 -0.155 -0.144 -0.132 -0.121 -0.109 -0.098 -0.086 -0.075 -0.063 -0.051 -0.040 -0.028 -0.017 -0.005 0.058 0.169 0.279 0.265 0.114 -0.036 -0.279 -0.133 0.396 -0.637 -0.640 -0.643 -0.646 -0.649 -0.653 -0.656 -0.659 -0.660 -0.657 -0.613 -0.672 -0.532 -0.384 -0.310 -0.483 -0.656 -0.592 -0.352 -0.112 0.097 0.263 0.430 0.596 0.504 0.266 0.039 0.001 -0.037 -0.075 -0.113 0.055 0.447 0.508 0.380 0.253 0.125 -0.002 -0.130 -0.257 -0.385 -0.512 -0.640 -0.598 -0.561 -0.524 -0.487 -0.450 -0.413 -0.377 -0.340 -0.303 -0.266 -0.229 -0.192 -0.155 -0.118 -0.081 -0.044 -0.197 -0.469 0.177 0.268 0.272 0.277 0.282 0.286 0.285 0.280 0.274 0.260 0.233 0.206 0.178 0.151 0.124 0.097 0.070 0.043 0.015 -0.012 -0.039 -0.066 -0.093 -0.121 -0.148 -0.175 -0.202 -0.229 -0.257 -0.270 -0.253 -0.236 -0.219 -0.202 -0.185 -0.168 -0.151 -0.134 -0.118 -0.113 -0.110 -0.107 -0.105 -0.102 -0.100 -0.097 -0.094 -0.092 -0.089 -0.086 -0.083 -0.077 -0.070 -0.067 -0.071 -0.074 -0.078 -0.082 -0.085 -0.089 -0.092 -0.096 -0.100 -0.103 -0.106 -0.102 -0.098 -0.095 -0.091 -0.088 -0.084 -0.080 -0.077 -0.073 -0.069 -0.066 -0.062 -0.058 -0.055 -0.056 -0.060 -0.063 -0.066 -0.070 -0.073 -0.073 -0.072 -0.071 -0.069 -0.068 -0.066 -0.065 -0.064 -0.062 -0.061 -0.059 -0.058 -0.057 -0.055 -0.054 -0.052 -0.052 -0.052 -0.051 -0.051 -0.050 -0.050 -0.049 -0.049 -0.048 -0.048 -0.047 -0.047 -0.046 -0.046 -0.045 -0.045 -0.045 -0.044 -0.044 -0.043 -0.043 -0.042 -0.042 -0.041 -0.041 -0.040 -0.040 -0.039 -0.039 -0.038 -0.038 -0.037 -0.037 -0.037 -0.036 -0.036 -0.035 -0.035 -0.034 -0.034 -0.033 -0.033 -0.032 -0.032 -0.031 -0.031 -0.030 -0.030 -0.030 -0.029 -0.029 -0.028 -0.028 -0.027 -0.027 -0.026 -0.026 -0.025 -0.025 -0.024 -0.024 -0.023 -0.023 -0.022 -0.022 -0.022 -0.021 -0.021 -0.020 -0.020 -0.019
0.071 0.061 0.051 0.042 0.032 0.022 0.012 0.002 -0.007 -0.017 -0.027 -0.037 -0.047 -0.056 -0.066 -0.076 -0.086 -0.095 -0.095 -0.075 -0.055 -0.022 0.022 0.050 -0.005 -0.061 -0.116 -0.172 -0.219 -0.198 -0.164 -0.229 -0.228 -0.228 -0.227 -0.227 -0.227 -0.226 -0.226 -0.225 -0.225 -0.224 -0.224 -0.223 -0.223 -0.222 -0.222 -0.221 -0.221 -0.220 -0.220 -0.220 -0.219 -0.219 -0.218 -0.218 -0.217 -0.217 -0.216 -0.216 -0.216 -0.215 -0.215 -0.215 -0.214 -0.214 -0.213 -0.213 -0.213 -0.226 -0.238 -0.238 -0.238 -0.238 -0.238 -0.238 -0.239 -0.239 -0.239 -0.239 -0.239 -0.239 -0.238 -0.238 -0.238 -0.237 -0.237 -0.236 -0.235 -0.235 -0.234 -0.233 -0.233 -0.232 -0.232 -0.231 -0.230 -0.230 -0.229 -0.228 -0.228 -0.227 -0.227 -0.226 -0.225 -0.225 -0.224 -0.223 -0.223 -0.222 -0.222 -0.221 -0.220 -0.220 -0.219 -0.218 -0.218 -0.217 -0.217 -0.216 -0.215 -0.215 -0.214 -0.213 -0.213 -0.212 -0.212 -0.211 -0.210 -0.210 -0.209 -0.208 -0.208 -0.207 -0.207 -0.206 -0.205 -0.205 -0.204 -0.203 -0.203 -0.202 -0.202 -0.201 -0.200 -0.200 -0.199 -0.198 -0.198 -0.197 -0.197 -0.196 -0.195 -0.195 -0.194 -0.193 -0.193 -0.192 -0.192 -0.191 -0.190 -0.190 -0.189 -0.188 -0.188 -0.187 -0.187 -0.186 -0.185 -0.185 -0.184 -0.183 -0.183 -0.182 -0.182 -0.181 -0.180 -0.180 -0.179 -0.178 -0.178 -0.180 -0.182 -0.185 -0.187 -0.190 -0.193 -0.195 -0.198 -0.196 -0.189 -0.182 -0.174 -0.167 -0.155 -0.144 -0.132 -0.121 -0.109 -0.098 -0.086 -0.074 -0.063 -0.051 -0.040 -0.028 -0.017 -0.005 0.006 0.018 0.103 0.214 0.324 0.173 0.023 -0.128 -0.333 0.058 0.017 -0.641 -0.644 -0.648 -0.651 -0.654 -0.656 -0.657 -0.658 -0.659 -0.601 -0.538 -0.597 -0.656 -0.616 -0.468 -0.559 -0.708 -0.468 -0.232 -0.066 0.101 0.267 0.433 0.599 0.483 0.245 0.007 -0.222 -0.260 -0.298 -0.208 0.184 0.577 0.454 0.326 0.199 0.071 -0.056 -0.184 -0.302 -0.341 -0.380 -0.451 -0.633 -0.606 -0.579 -0.553 -0.526 -0.499 -0.467 -0.430 -0.393 -0.356 -0.319 -0.282 -0.245 -0.208 -0.171 -0.134 -0.182 -0.225 0.136 0.213 0.218 0.222 0.227 0.231 0.236 0.241 0.245 0.250 0.245 0.239 0.234 0.228 0.222 0.208 0.180 0.153 0.126 0.099 0.072 0.044 0.017 -0.010 -0.037 -0.064 -0.092 -0.119 -0.146 -0.173 -0.200 -0.228 -0.244 -0.227 -0.210 -0.193 -0.176 -0.159 -0.142 -0.125 -0.110 -0.108 -0.105 -0.102 -0.100 -0.097 -0.095 -0.092 -0.089 -0.087 -0.084 -0.077 -0.070 -0.071 -0.075 -0.079 -0.082 -0.086 -0.089 -0.093 -0.097 -0.100 -0.104 -0.108 -0.109 -0.105 -0.102 -0.098 -0.095 -0.091 -0.087 -0.084 -0.080 -0.076 -0.073 -0.069 -0.065 -0.062 -0.058 -0.058 -0.062 -0.065 -0.068 -0.072 -0.075 -0.074 -0.072 -0.071 -0.069 -0.068 -0.067 -0.065 -0.064 -0.062 -0.061 -0.060 -0.058 -0.057 -0.056 -0.054 -0.053 -0.052 -0.052 -0.051 -0.051 -0.050 -0.050 -0.050 -0.049 -0.049 -0.048 -0.048 -0.047 -0.047 -0.046 -0.046 -0.045 -0.045 -0.044 -0.044 -0.043 -0.043 -0.042 -0.042 -0.042 -0.041 -0.041 -0.040 -0.040 -0.039 -0.039 -0.038 -0.038 -0.037 -0.037 -0.036 -0.036 -0.035 -0.035 -0.035 -0.034 -0.034 -0.033 -0.033 -0.032 -0.032 -0.031 -0.031 -0.030 -0.030 -0.029 -0.029 -0.028 -0.028 -0.027 -0.027 -0.027 -0.026 -0.026 -0.025 -0.025 -0.024 -0.024 -0.023 -0.023 -0.022 -0.022 -0.021 -0.021 -0.020 -0.020 -0.020
0.075 0.065 0.055 0.046 0.036 0.026 0.016 0.006 -0.003 -0.013 -0.023 -0.033 -0.043 -0.052 -0.062 -0.072 -0.082 -0.091 -0.077 -0.057 -0.036 0.008 0.052 0.062 0.006 -0.049 -0.105 -0.160 -0.213 -0.222 -0.182 -0.235 -0.235 -0.234 -0.234 -0.233 -0.233 -0.232 -0.232 -0.231 -0.231 -0.230 -0.230 -0.229 -0.229 -0.228 -0.228 -0.228 -0.227 -0.227 -0.226 -0.226 -0.225 -0.225 -0.224 -0.224 -0.223 -0.223 -0.222 -0.222 -0.221 -0.221 -0.221 -0.220 -0.220 -0.219 -0.219 -0.219 -0.218 -0.218 -0.218 -0.234 -0.238 -0.239 -0.239 -0.239 -0.239 -0.239 -0.240 -0.240 -0.240 -0.239 -0.239 -0.238 -0.238 -0.237 -0.237 -0.236 -0.236 -0.235 -0.234 -0.234 -0.233 -0.232 -0.232 -0.231 -0.231 -0.230 -0.229 -0.229 -0.228 -0.227 -0.227 -0.226 -0.226 -0.225 -0.224 -0.224 -0.223 -0.222 -0.222 -0.221 -0.221 -0.220 -0.219 -0.219 -0.218 -0.217 -0.217 -0.216 -0.216 -0.215 -0.214 -0.214 -0.213 -0.212 -0.212 -0.211 -0.211 -0.210 -0.209 -0.209 -0.208 -0.207 -0.207 -0.206 -0.206 -0.205 -0.204 -0.204 -0.203 -0.202 -0.202 -0.201 -0.201 -0.200 -0.199 -0.199 -0.198 -0.197 -0.197 -0.196 -0.196 -0.195 -0.194 -0.194 -0.193 -0.192 -0.192 -0.191 -0.191 -0.190 -0.189 -0.189 -0.188 -0.187 -0.187 -0.186 -0.186 -0.185 -0.184 -0.184 -0.183 -0.182 -0.182 -0.181 -0.181 -0.180 -0.179 -0.179 -0.178 -0.181 -0.183 -0.185 -0.188 -0.190 -0.193 -0.196 -0.190 -0.182 -0.175 -0.167 -0.155 -0.144 -0.132 -0.121 -0.109 -0.097 -0.086 -0.074 -0.063 -0.051 -0.040 -0.028 -0.017 -0.005 0.007 0.018 0.030 0.041 0.148 0.259 0.233 0.082 -0.068 -0.219 -0.329 -0.342 -0.382 -0.527 -0.649 -0.651 -0.652 -0.653 -0.655 -0.656 -0.657 -0.610 -0.546 -0.482 -0.522 -0.581 -0.640 -0.699 -0.635 -0.584 -0.395 -0.228 -0.062 0.104 0.270 0.436 0.602 0.463 0.225 -0.013 -0.251 -0.484 -0.471 -0.078 0.314 0.528 0.400 0.273 0.145 0.045 0.006 -0.032 -0.071 -0.109 -0.148 -0.251 -0.441 -0.627 -0.600 -0.574 -0.547 -0.520 -0.494 -0.467 -0.440 -0.414 -0.387 -0.360 -0.334 -0.298 -0.261 -0.224 -0.187 -0.074 0.095 0.158 0.163 0.167 0.172 0.177 0.181 0.186 0.190 0.195 0.200 0.204 0.209 0.210 0.205 0.199 0.193 0.188 0.182 0.176 0.171 0.155 0.128 0.101 0.073 0.046 0.019 -0.008 -0.035 -0.063 -0.090 -0.117 -0.144 -0.171 -0.198 -0.217 -0.201 -0.184 -0.167 -0.150 -0.133 -0.116 -0.105 -0.103 -0.100 -0.097 -0.095 -0.092 -0.090 -0.087 -0.084 -0.077 -0.072 -0.076 -0.079 -0.083 -0.087 -0.090 -0.094 -0.097 -0.101 -0.105 -0.108 -0.112 -0.113 -0.109 -0.105 -0.102 -0.098 -0.094 -0.091 -0.087 -0.083 -0.080 -0.076 -0.072 -0.069 -0.065 -0.061 -0.060 -0.064 -0.067 -0.070 -0.074 -0.075 -0.074 -0.073 -0.071 -0.070 -0.068 -0.067 -0.066 -0.064 -0.063 -0.061 -0.060 -0.059 -0.057 -0.056 -0.054 -0.053 -0.053 -0.052 -0.052 -0.051 -0.051 -0.050 -0.050 -0.049 -0.049 -0.048 -0.048 -0.047 -0.047 -0.047 -0.046 -0.046 -0.045 -0.045 -0.044 -0.044 -0.043 -0.043 -0.042 -0.042 -0.041 -0.041 -0.040 -0.040 -0.040 -0.039 -0.039 -0.038 -0.038 -0.037 -0.037 -0.036 -0.036 -0.035 -0.035 -0.034 -0.034 -0.033 -0.033 -0.032 -0.032 -0.032 -0.031 -0.031 -0.030 -0.030 -0.029 -0.029 -0.028 -0.028 -0.027 -0.027 -0.026 -0.026 -0.025 -0.025 -0.025 -0.024 -0.024 -0.023 -0.023 -0.022 -0.022 -0.021 -0.021 -0.020 -0.020
0.079 0.069 0.059 0.050 0.040 0.030 0.020 0.010 0.001 -0.009 -0.019 -0.029 -0.038 -0.048 -0.058 -0.068 -0.078 -0.080 -0.060 -0.040 -0.006 0.038 0.082 0.074 0.018 -0.037 -0.093 -0.148 -0.204 -0.247 -0.200 -0.241 -0.241 -0.240 -0.240 -0.239 -0.239 -0.238 -0.238 -0.237 -0.237 -0.236 -0.236 -0.235 -0.235 -0.235 -0.234 -0.234 -0.233 -0.233 -0.232 -0.232 -0.231 -0.231 -0.230 -0.230 -0.229 -0.229 -0.228 -0.228 -0.228 -0.227 -0.227 -0.226 -0.226 -0.225 -0.225 -0.224 -0.224 -0.224 -0.223 -0.223 -0.223 -0.239 -0.239 -0.239 -0.240 -0.240 -0.240 -0.240 -0.240 -0.240 -0.239 -0.239 -0.238 -0.238 -0.237 -0.237 -0.236 -0.235 -0.235 -0.234 -0.233 -0.233 -0.232 -0.232 -0.231 -0.230 -0.230 -0.229 -0.228 -0.228 -0.227 -0.227 -0.226 -0.225 -0.225 -0.224 -0.223 -0.223 -0.222 -0.222 -0.221 -0.220 -0.220 -0.219 -0.218 -0.218 -0.217 -0.217 -0.216 -0.215 -0.215 -0.214 -0.213 -0.213 -0.212 -0.212 -0.211 -0.210 -0.210 -0.209 -0.208 -0.208 -0.207 -0.207 -0.206 -0.205 -0.205 -0.204 -0.203 -0.203 -0.202 -0.202 -0.201 -0.200 -0.200 -0.199 -0.198 -0.198 -0.197 -0.197 -0.196 -0.195 -0.195 -0.194 -0.193 -0.193 -0.192 -0.192 -0.191 -0.190 -0.190 -0.189 -0.188 -0.188 -0.187 -0.187 -0.186 -0.185 -0.185 -0.184 -0.183 -0.183 -0.182 -0.182 -0.181 -0.180 -0.180 -0.179 -0.179 -0.181 -0.183 -0.185 -0.188 -0.191 -0.190 -0.183 -0.176 -0.167 -0.155 -0.144 -0.132 -0.120 -0.109 -0.097 -0.086 -0.074 -0.063 -0.051 -0.040 -0.028 -0.016 -0.005 0.007 0.018 0.030 0.041 0.053 0.082 0.193 0.292 0.142 -0.009 -0.159 -0.310 -0.351 -0.440 -0.529 -0.618 -0.649 -0.650 -0.651 -0.652 -0.653 -0.654 -0.618 -0.554 -0.491 -0.427 -0.447 -0.506 -0.565 -0.624 -0.670 -0.557 -0.391 -0.225 -0.059 0.107 0.273 0.440 0.606 0.443 0.205 -0.033 -0.271 -0.509 -0.250 0.052 0.444 0.474 0.392 0.354 0.315 0.277 0.238 0.200 0.161 0.123 0.084 -0.051 -0.241 -0.432 -0.622 -0.595 -0.568 -0.541 -0.515 -0.488 -0.461 -0.435 -0.408 -0.381 -0.355 -0.328 -0.301 -0.275 -0.232 -0.115 0.054 0.103 0.108 0.113 0.117 0.122 0.126 0.131 0.136 0.140 0.145 0.149 0.154 0.159 0.163 0.168 0.173 0.170 0.164 0.158 0.153 0.147 0.142 0.136 0.130 0.125 0.119 0.102 0.075 0.048 0.021 -0.006 -0.033 -0.061 -0.088 -0.115 -0.142 -0.169 -0.191 -0.174 -0.157 -0.141 -0.124 -0.107 -0.100 -0.098 -0.095 -0.093 -0.090 -0.087 -0.084 -0.078 -0.076 -0.080 -0.084 -0.087 -0.091 -0.094 -0.098 -0.102 -0.105 -0.109 -0.113 -0.116 -0.116 -0.112 -0.109 -0.105 -0.101 -0.098 -0.094 -0.090 -0.087 -0.083 -0.079 -0.076 -0.072 -0.068 -0.065 -0.062 -0.066 -0.069 -0.072 -0.076 -0.076 -0.074 -0.073 -0.071 -0.070 -0.069 -0.067 -0.066 -0.065 -0.063 -0.062 -0.060 -0.059 -0.058 -0.056 -0.055 -0.053 -0.053 -0.052 -0.052 -0.052 -0.051 -0.051 -0.050 -0.050 -0.049 -0.049 -0.048 -0.048 -0.047 -0.047 -0.046 -0.046 -0.045 -0.045 -0.045 -0.044 -0.044 -0.043 -0.043 -0.042 -0.042 -0.041 -0.041 -0.040 -0.040 -0.039 -0.039 -0.038 -0.038 -0.037 -0.037 -0.037 -0.036 -0.036 -0.035 -0.035 -0.034 -0.034 -0.033 -0.033 -0.032 -0.032 -0.031 -0.031 -0.030 -0.030 -0.030 -0.029 -0.029 -0.028 -0.028 -0.027 -0.027 -0.026 -0.026 -0.025 -0.025 -0.024 -0.024 -0.023 -0.023 -0.022 -0.022 -0.022 -0.021 -0.021 -0.020
0.083 0.073 0.063 0.054 0.044 0.034 0.024 0.014 0.005 -0.005 -0.015 -0.025 -0.034 -0.044 -0.054 -0.064 -0.074 -0.062 -0.042 -0.020 0.024 0.068 0.111 0.086 0.030 -0.025 -0.081 -0.137 -0.192 -0.243 -0.217 -0.247 -0.247 -0.246 -0.246 -0.245 -0.245 -0.244 -0.244 -0.243 -0.243 -0.243 -0.242 -0.242 -0.241 -0.241 -0.240 -0.240 -0.239 -0.239 -0.238 -0.238 -0.237 -0.237 -0.236 -0.236 -0.235 -0.235 -0.235 -0.234 -0.234 -0.233 -0.233 -0.232 -0.232 -0.231 -0.231 -0.230 -0.230 -0.229 -0.229 -0.229 -0.228 -0.228 -0.228 -0.240 -0.240 -0.240 -0.240 -0.241 -0.241 -0.240 -0.240 -0.239 -0.239 -0.238 -0.237 -0.237 -0.236 -0.236 -0.235 -0.234 -0.234 -0.233 -0.232 -0.232 -0.231 -0.231 -0.230 -0.229 -0.229 -0.228 -0.227 -0.227 -0.226 -0.226 -0.225 -0.224 -0.224 -0.223 -0.222 -0.222 -0.221 -0.221 -0.220 -0.219 -0.219 -0.218 -0.217 -0.217 -0.216 -0.216 -0.215 -0.214 -0.214 -0.213 -0.212 -0.212 -0.211 -0.211 -0.210 -0.209 -0.209 -0.208 -0.207 -0.207 -0.206 -0.206 -0.205 -0.204 -0.204 -0.203 -0.202 -0.202 -0.201 -0.201 -0.200 -0.199 -0.199 -0.198 -0.197 -0.197 -0.196 -0.196 -0.195 -0.194 -0.194 -0.193 -0.192 -0.192 -0.191 -0.191 -0.190 -0.189 -0.189 -0.188 -0.187 -0.187 -0.186 -0.186 -0.185 -0.184 -0.184 -0.183 -0.182 -0.182 -0.181 -0.181 -0.180 -0.179 -0.179 -0.181 -0.183 -0.186 -0.189 -0.184 -0.176 -0.166 -0.155 -0.143 -0.132 -0.120 -0.109 -0.097 -0.086 -0.074 -0.063 -0.051 -0.039 -0.028 -0.016 -0.005 0.007 0.018 0.030 0.041 0.053 0.065 0.076 0.127 0.238 0.201 0.050 -0.100 -0.239 -0.273 -0.316 -0.405 -0.494 -0.582 -0.648 -0.649 -0.650 -0.651 -0.652 -0.627 -0.563 -0.499 -0.435 -0.372 -0.372 -0.431 -0.490 -0.537 -0.509 -0.482 -0.388 -0.222 -0.056 0.111 0.277 0.443 0.609 0.422 0.184 -0.054 -0.292 -0.137 0.160 0.457 0.493 0.448 0.487 0.525 0.547 0.509 0.470 0.431 0.393 0.354 0.316 0.149 -0.041 -0.232 -0.422 -0.613 -0.589 -0.563 -0.536 -0.509 -0.482 -0.456 -0.429 -0.402 -0.376 -0.349 -0.322 -0.266 -0.185 -0.156 0.012 0.049 0.053 0.058 0.062 0.067 0.072 0.076 0.081 0.085 0.090 0.095 0.099 0.104 0.108 0.113 0.118 0.122 0.127 0.132 0.135 0.129 0.124 0.118 0.112 0.107 0.101 0.096 0.090 0.084 0.079 0.073 0.068 0.050 0.023 -0.004 -0.032 -0.059 -0.086 -0.113 -0.140 -0.165 -0.148 -0.131 -0.114 -0.098 -0.095 -0.093 -0.090 -0.088 -0.085 -0.078 -0.081 -0.084 -0.088 -0.092 -0.095 -0.099 -0.102 -0.106 -0.110 -0.113 -0.117 -0.120 -0.119 -0.116 -0.112 -0.108 -0.105 -0.101 -0.097 -0.094 -0.090 -0.086 -0.083 -0.079 -0.075 -0.072 -0.068 -0.064 -0.068 -0.071 -0.074 -0.077 -0.076 -0.075 -0.073 -0.072 -0.070 -0.069 -0.068 -0.066 -0.065 -0.063 -0.062 -0.061 -0.059 -0.058 -0.056 -0.055 -0.054 -0.053 -0.053 -0.052 -0.052 -0.051 -0.051 -0.050 -0.050 -0.050 -0.049 -0.049 -0.048 -0.048 -0.047 -0.047 -0.046 -0.046 -0.045 -0.045 -0.044 -0.044 -0.043 -0.043 -0.042 -0.042 -0.042 -0.041 -0.041 -0.040 -0.040 -0.039 -0.039 -0.038 -0.038 -0.037 -0.037 -0.036 -0.036 -0.035 -0.035 -0.035 -0.034 -0.034 -0.033 -0.033 -0.032 -0.032 -0.031 -0.031 -0.030 -0.030 -0.029 -0.029 -0.028 -0.028 -0.027 -0.027 -0.027 -0.026 -0.026 -0.025 -0.025 -0.024 -0.024 -0.023 -0.023 -0.022 -0.022 -0.021 -0.021 -0.020
0.087 0.077 0.067 0.058 0.048 0.038 0.028 0.018 0.009 -0.001 -0.011 -0.021 -0.030 -0.040 -0.050 -0.060 -0.065 -0.045 -0.024 0.010 0.054 0.097 0.141 0.097 0.042 -0.014 -0.069 -0.125 -0.180 -0.236 -0.235 -0.253 -0.253 -0.252 -0.252 -0.251 -0.251 -0.250 -0.250 -0.250 -0.249 -0.249 -0.248 -0.248 -0.247 -0.247 -0.246 -0.246 -0.245 -0.245 -0.244 -0.244 -0.243 -0.243 -0.243 -0.242 -0.242 -0.241 -0.241 -0.240 -0.240 -0.239 -0.239 -0.238 -0.238 -0.237 -0.237 -0.236 -0.236 -0.235 -0.235 -0.235 -0.234 -0.234 -0.233 -0.233 -0.233 -0.241 -0.241 -0.241 -0.241 -0.241 -0.240 -0.240 -0.239 -0.238 -0.238 -0.237 -0.237 -0.236 -0.235 -0.235 -0.234 -0.233 -0.233 -0.232 -0.232 -0.231 -0.230 -0.230 -0.229 -0.228 -0.228 -0.227 -0.227 -0.226 -0.225 -0.225 -0.224 -0.223 -0.223 -0.222 -0.222 -0.221 -0.220 -0.220 -0.219 -0.218 -0.218 -0.217 -0.217 -0.216 -0.215 -0.215 -0.214 -0.213 -0.213 -0.212 -0.212 -0.211 -0.210 -0.210 -0.209 -0.208 -0.208 -0.207 -0.207 -0.206 -0.205 -0.205 -0.204 -0.203 -0.203 -0.202 -0.202 -0.201 -0.200 -0.200 -0.199 -0.198 -0.198 -0.197 -0.197 -0.196 -0.195 -0.195 -0.194 -0.193 -0.193 -0.192 -0.192 -0.191 -0.190 -0.190 -0.189 -0.188 -0.188 -0.187 -0.187 -0.186 -0.185 -0.185 -0.184 -0.183 -0.183 -0.182 -0.182 -0.181 -0.180 -0.180 -0.179 -0.181 -0.184 -0.184 -0.177 -0.166 -0.155 -0.143 -0.132 -0.120 -0.109 -0.097 -0.085 -0.074 -0.062 -0.051 -0.039 -0.028 -0.016 -0.005 0.007 0.018 0.030 0.042 0.053 0.065 0.076 0.088 0.099 0.172 0.260 0.110 -0.041 -0.169 -0.202 -0.236 -0.281 -0.370 -0.458 -0.546 -0.634 -0.647 -0.649 -0.650 -0.635 -0.571 -0.508 -0.444 -0.380 -0.316 -0.297 -0.356 -0.403 -0.376 -0.349 -0.322 -0.294 -0.218 -0.052 0.114 0.280 0.446 0.612 0.402 0.164 -0.074 -0.024 0.273 0.568 0.460 0.353 0.246 0.243 0.281 0.320 0.358 0.397 0.435 0.474 0.512 0.540 0.349 0.159 -0.032 -0.222 -0.412 -0.603 -0.584 -0.557 -0.530 -0.504 -0.477 -0.450 -0.423 -0.397 -0.370 -0.300 -0.219 -0.138 -0.153 -0.029 -0.006 -0.002 0.003 0.008 0.012 0.017 0.021 0.026 0.031 0.035 0.040 0.044 0.049 0.054 0.058 0.063 0.068 0.072 0.077 0.081 0.086 0.091 0.095 0.095 0.089 0.083 0.078 0.072 0.066 0.061 0.055 0.050 0.044 0.038 0.033 0.027 0.022 0.016 -0.003 -0.030 -0.057 -0.084 -0.111 -0.139 -0.122 -0.105 -0.093 -0.090 -0.088 -0.085 -0.081 -0.085 -0.089 -0.092 -0.096 -0.099 -0.103 -0.107 -0.110 -0.114 -0.118 -0.121 -0.125 -0.123 -0.119 -0.115 -0.112 -0.108 -0.104 -0.101 -0.097 -0.093 -0.090 -0.086 -0.082 -0.079 -0.075 -0.071 -0.068 -0.070 -0.073 -0.076 -0.078 -0.076 -0.075 -0.073 -0.072 -0.071 -0.069 -0.068 -0.067 -0.065 -0.064 -0.062 -0.061 -0.060 -0.058 -0.057 -0.055 -0.054 -0.054 -0.053 -0.053 -0.052 -0.052 -0.051 -0.051 -0.050 -0.050 -0.049 -0.049 -0.048 -0.048 -0.047 -0.047 -0.047 -0.046 -0.046 -0.045 -0.045 -0.044 -0.044 -0.043 -0.043 -0.042 -0.042 -0.041 -0.041 -0.040 -0.040 -0.040 -0.039 -0.039 -0.038 -0.038 -0.037 -0.037 -0.036 -0.036 -0.035 -0.035 -0.034 -0.034 -0.033 -0.033 -0.032 -0.032 -0.032 -0.031 -0.031 -0.030 -0.030 -0.029 -0.029 -0.028 -0.028 -0.027 -0.027 -0.026 -0.026 -0.025 -0.025 -0.025 -0.024 -0.024 -0.023 -0.023 -0.022 -0.022 -0.021 -0.021
0.091 0.081 0.071 0.062 0.052 0.042 0.032 0.023 0.013 0.003 -0.007 -0.017 -0.026 -0.036 -0.046 -0.056 -0.047 -0.027 -0.004 0.040 0.083 0.127 0.165 0.109 0.054 -0.002 -0.057 -0.113 -0.168 -0.224 -0.253 -0.259 -0.259 -0.258 -0.258 -0.258 -0.257 -0.257 -0.256 -0.256 -0.255 -0.255 -0.254 -0.254 -0.253 -0.253 -0.252 -0.252 -0.251 -0.251 -0.251 -0.250 -0.250 -0.249 -0.249 -0.248 -0.248 -0.247 -0.247 -0.246 -0.246 -0.245 -0.245 -0.244 -0.244 -0.243 -0.243 -0.243 -0.242 -0.242 -0.241 -0.241 -0.240 -0.240 -0.239 -0.239 -0.238 -0.238 -0.238 -0.242 -0.242 -0.241 -0.241 -0.240 -0.239 -0.239 -0.238 -0.237 -0.237 -0.236 -0.236 -0.235 -0.234 -0.234 -0.233 -0.232 -0.232 -0.231 -0.231 -0.230 -0.229 -0.229 -0.228 -0.227 -0.227 -0.226 -0.226 -0.225 -0.224 -0.224 -0.223 -0.222 -0.222 -0.221 -0.221 -0.220 -0.219 -0.219 -0.218 -0.217 -0.217 -0.216 -0.216 -0.215 -0.214 -0.214 -0.213 -0.212 -0.212 -0.211 -0.211 -0.210 -0.209 -0.209 -0.208 -0.207 -0.207 -0.206 -0.206 -0.205 -0.204 -0.204 -0.203 -0.202 -0.202 -0.201 -0.201 -0.200 -0.199 -0.199 -0.198 -0.197 -0.197 -0.196 -0.196 -0.195 -0.194 -0.194 -0.193 -0.192 -0.192 -0.191 -0.191 -0.190 -0.189 -0.189 -0.188 -0.187 -0.187 -0.186 -0.186 -0.185 -0.184 -0.184 -0.183 -0.182 -0.182 -0.181 -0.181 -0.180 -0.180 -0.182 -0.178 -0.166 -0.155 -0.143 -0.132 -0.120 -0.108 -0.097 -0.085 -0.074 -0.062 -0.051 -0.039 -0.028 -0.016 -0.004 0.007 0.019 0.030 0.042 0.053 0.065 0.076 0.088 0.100 0.111 0.123 0.217 0.169 0.018 -0.099 -0.132 -0.166 -0.199 -0.246 -0.334 -0.422 -0.510 -0.598 -0.646 -0.647 -0.644 -0.580 -0.516 -0.452 -0.389 -0.325 -0.261 -0.222 -0.270 -0.243 -0.216 -0.188 -0.161 -0.134 -0.107 -0.049 0.117 0.283 0.450 0.616 0.382 0.144 0.089 0.386 0.535 0.427 0.320 0.213 0.105 -0.001 0.038 0.076 0.115 0.153 0.191 0.230 0.328 0.458 0.452 0.327 0.169 -0.022 -0.212 -0.403 -0.593 -0.578 -0.551 -0.525 -0.498 -0.471 -0.445 -0.414 -0.334 -0.253 -0.172 -0.092 -0.084 -0.070 -0.061 -0.056 -0.052 -0.047 -0.043 -0.038 -0.033 -0.029 -0.024 -0.020 -0.015 -0.010 -0.006 -0.001 0.003 0.008 0.013 0.017 0.022 0.027 0.031 0.036 0.040 0.045 0.050 0.054 0.059 0.054 0.048 0.043 0.037 0.032 0.026 0.020 0.015 0.009 0.004 -0.002 -0.008 -0.013 -0.019 -0.024 -0.030 -0.036 -0.055 -0.082 -0.109 -0.096 -0.088 -0.085 -0.086 -0.089 -0.093 -0.097 -0.100 -0.104 -0.107 -0.111 -0.115 -0.118 -0.122 -0.125 -0.129 -0.126 -0.122 -0.119 -0.115 -0.111 -0.108 -0.104 -0.100 -0.097 -0.093 -0.089 -0.086 -0.082 -0.078 -0.075 -0.071 -0.072 -0.075 -0.078 -0.078 -0.077 -0.075 -0.074 -0.072 -0.071 -0.070 -0.068 -0.067 -0.065 -0.064 -0.063 -0.061 -0.060 -0.058 -0.057 -0.056 -0.054 -0.054 -0.053 -0.053 -0.052 -0.052 -0.052 -0.051 -0.051 -0.050 -0.050 -0.049 -0.049 -0.048 -0.048 -0.047 -0.047 -0.046 -0.046 -0.045 -0.045 -0.045 -0.044 -0.044 -0.043 -0.043 -0.042 -0.042 -0.041 -0.041 -0.040 -0.040 -0.039 -0.039 -0.038 -0.038 -0.037 -0.037 -0.037 -0.036 -0.036 -0.035 -0.035 -0.034 -0.034 -0.033 -0.033 -0.032 -0.032 -0.031 -0.031 -0.030 -0.030 -0.030 -0.029 -0.029 -0.028 -0.028 -0.027 -0.027 -0.026 -0.026 -0.025 -0.025 -0.024 -0.024 -0.023 -0.023 -0.022 -0.022 -0.022 -0.021
0.095 0.085 0.075 0.066 0.056 0.046 0.036 0.027 0.017 0.007 -0.003 -0.013 -0.022 -0.032 -0.042 -0.049 -0.029 -0.009 0.026 0.069 0.113 0.157 0.177 0.121 0.066 0.010 -0.046 -0.101 -0.157 -0.212 -0.262 -0.262 -0.261 -0.261 -0.260 -0.260 -0.259 -0.259 -0.258 -0.258 -0.258 -0.257 -0.257 -0.256 -0.256 -0.255 -0.255 -0.254 -0.254 -0.253 -0.253 -0.252 -0.252 -0.251 -0.251 -0.251 -0.250 -0.250 -0.249 -0.249 -0.248 -0.248 -0.247 -0.247 -0.246 -0.246 -0.245 -0.245 -0.244 -0.244 -0.243 -0.243 -0.243 -0.242 -0.242 -0.241 -0.241 -0.240 -0.240 -0.239 -0.239 -0.239 -0.238 -0.238 -0.237 -0.236 -0.236 -0.235 -0.234 -0.234 -0.233 -0.233 -0.232 -0.231 -0.231 -0.230 -0.229 -0.229 -0.228 -0.228 -0.227 -0.226 -0.226 -0.225 -0.224 -0.224 -0.223 -0.223 -0.222 -0.221 -0.221 -0.220 -0.219 -0.219 -0.218 -0.218 -0.217 -0.216 -0.216 -0.215 -0.214 -0.214 -0.213 -0.213 -0.212 -0.211 -0.211 -0.210 -0.209 -0.209 -0.213 -0.213 -0.212 -0.211 -0.211 -0.210 -0.210 -0.209 -0.208 -0.208 -0.207 -0.206 -0.206 -0.205 -0.205 -0.204 -0.203 -0.203 -0.202 -0.201 -0.201 -0.200 -0.200 -0.199 -0.198 -0.198 -0.197 -0.196 -0.196 -0.195 -0.195 -0.194 -0.193 -0.193 -0.192 -0.191 -0.191 -0.190 -0.190 -0.189 -0.188 -0.188 -0.187 -0.186 -0.186 -0.185 -0.185 -0.184 -0.183 -0.183 -0.179 -0.166 -0.155 -0.143 -0.131 -0.120 -0.108 -0.097 -0.085 -0.074 -0.062 -0.051 -0.039 -0.027 -0.016 -0.004 0.007 0.019 0.030 0.042 0.053 0.065 0.077 0.088 0.100 0.111 0.123 0.134 0.151 0.228 0.078 -0.028 -0.062 -0.095 -0.129 -0.136 -0.117 -0.255 -0.386 -0.474 -0.562 -0.645 -0.646 -0.588 -0.525 -0.461 -0.397 -0.333 -0.269 -0.206 -0.153 -0.110 -0.082 -0.055 -0.028 -0.001 0.027 0.054 0.081 0.121 0.287 0.453 0.599 0.361 0.202 0.498 0.502 0.394 0.287 0.180 0.072 -0.035 -0.142 -0.206 -0.168 -0.129 -0.091 -0.029 0.101 0.231 0.361 0.486 0.361 0.236 0.112 -0.013 -0.203 -0.393 -0.584 -0.572 -0.546 -0.519 -0.492 -0.448 -0.368 -0.287 -0.206 -0.126 -0.045 -0.016 -0.118 -0.116 -0.111 -0.107 -0.102 -0.097 -0.093 -0.088 -0.084 -0.079 -0.074 -0.070 -0.065 -0.061 -0.056 -0.051 -0.047 -0.042 -0.037 -0.033 -0.028 -0.024 -0.019 -0.014 -0.010 -0.005 -0.001 0.004 0.009 0.013 0.018 0.019 0.014 0.008 0.002 -0.003 -0.009 -0.014 -0.020 -0.026 -0.031 -0.037 -0.042 -0.048 -0.054 -0.059 -0.065 -0.071 -0.076 -0.082 -0.087 -0.090 -0.094 -0.097 -0.101 -0.104 -0.108 -0.112 -0.115 -0.119 -0.123 -0.126 -0.130 -0.133 -0.129 -0.126 -0.122 -0.118 -0.115 -0.111 -0.107 -0.104 -0.100 -0.096 -0.093 -0.089 -0.085 -0.082 -0.078 -0.075 -0.074 -0.077 -0.080 -0.078 -0.077 -0.075 -0.074 -0.073 -0.071 -0.070 -0.069 -0.067 -0.066 -0.064 -0.063 -0.062 -0.060 -0.059 -0.057 -0.056 -0.055 -0.054 -0.054 -0.053 -0.053 -0.052 -0.052 -0.051 -0.051 -0.050 -0.050 -0.050 -0.049 -0.049 -0.048 -0.048 -0.047 -0.047 -0.046 -0.046 -0.045 -0.045 -0.044 -0.044 -0.043 -0.043 -0.043 -0.042 -0.042 -0.041 -0.041 -0.040 -0.040 -0.039 -0.039 -0.038 -0.038 -0.037 -0.037 -0.036 -0.036 -0.035 -0.035 -0.035 -0.034 -0.034 -0.033 -0.033 -0.032 -0.032 -0.031 -0.031 -0.030 -0.030 -0.029 -0.029 -0.028 -0.028 -0.027 -0.027 -0.027 -0.026 -0.026 -0.025 -0.025 -0.024 -0.024 -0.023 -0.023 -0.022 -0.022 -0.021
0.099 0.089 0.080 0.070 0.060 0.050 0.040 0.031 0.021 0.011 0.001 -0.009 -0.018 -0.028 -0.038 -0.032 -0.012 0.012 0.055 0.099 0.143 0.187 0.188 0.133 0.077 0.022 -0.034 -0.089 -0.145 -0.200 -0.221 -0.208 -0.207 -0.207 -0.206 -0.206 -0.205 -0.205 -0.204 -0.204 -0.204 -0.203 -0.203 -0.202 -0.202 -0.201 -0.201 -0.200 -0.200 -0.199 -0.199 -0.198 -0.198 -0.197 -0.197 -0.197 -0.196 -0.196 -0.195 -0.195 -0.194 -0.194 -0.193 -0.193 -0.192 -0.192 -0.191 -0.191 -0.190 -0.190 -0.189 -0.189 -0.189 -0.188 -0.188 -0.187 -0.187 -0.186 -0.186 -0.185 -0.217 -0.196 -0.196 -0.195 -0.194 -0.194 -0.193 -0.193 -0.192 -0.191 -0.191 -0.190 -0.189 -0.189 -0.188 -0.188 -0.187 -0.186 -0.186 -0.185 -0.184 -0.184 -0.183 -0.183 -0.182 -0.181 -0.181 -0.180 -0.179 -0.179 -0.178 -0.178 -0.177 -0.176 -0.176 -0.175 -0.174 -0.174 -0.173 -0.173 -0.172 -0.171 -0.171 -0.170 -0.169 -0.169 -0.168 -0.168 -0.167 -0.166 -0.216 -0.252 -0.251 -0.250 -0.250 -0.249 -0.248 -0.248 -0.247 -0.247 -0.246 -0.245 -0.245 -0.244 -0.243 -0.243 -0.242 -0.242 -0.241 -0.240 -0.240 -0.239 -0.238 -0.238 -0.237 -0.237 -0.236 -0.235 -0.235 -0.234 -0.233 -0.233 -0.232 -0.232 -0.231 -0.230 -0.230 -0.229 -0.228 -0.228 -0.227 -0.227 -0.226 -0.225 -0.225 -0.224 -0.223 -0.223 -0.222 -0.222 -0.179 -0.168 -0.157 -0.144 -0.129 -0.113 -0.098 -0.082 -0.067 -0.052 -0.039 -0.027 -0.016 -0.004 0.007 0.019 0.030 0.042 0.054 0.065 0.077 0.088 0.100 0.111 0.123 0.134 0.146 0.158 0.196 0.137 0.042 0.008 -0.025 -0.017 -0.006 0.030 0.099 -0.038 -0.176 -0.313 -0.450 -0.587 -0.579 -0.499 -0.420 -0.341 -0.262 -0.183 -0.104 -0.024 -0.295 -0.201 -0.107 -0.013 0.081 0.160 0.187 0.214 0.242 0.269 0.296 0.456 0.579 0.341 0.576 0.469 0.362 0.254 0.147 0.039 -0.068 -0.175 -0.283 -0.390 -0.411 -0.373 -0.256 -0.126 0.003 0.133 0.263 0.450 0.395 0.270 0.145 0.021 -0.104 -0.229 -0.383 -0.574 -0.567 -0.540 -0.482 -0.401 -0.321 -0.240 -0.160 -0.079 0.002 0.039 -0.132 -0.129 -0.126 -0.123 -0.120 -0.117 -0.115 -0.112 -0.109 -0.114 -0.123 -0.125 -0.120 -0.115 -0.111 -0.106 -0.102 -0.097 -0.092 -0.088 -0.083 -0.078 -0.074 -0.069 -0.065 -0.060 -0.055 -0.051 -0.046 -0.042 -0.037 -0.032 -0.028 -0.023 -0.019 -0.021 -0.027 -0.032 -0.038 -0.044 -0.049 -0.055 -0.060 -0.066 -0.072 -0.077 -0.083 -0.088 -0.094 -0.100 -0.080 -0.113 -0.154 -0.133 -0.112 -0.109 -0.112 -0.116 -0.120 -0.123 -0.127 -0.130 -0.134 -0.136 -0.133 -0.129 -0.125 -0.122 -0.118 -0.114 -0.111 -0.107 -0.103 -0.100 -0.096 -0.093 -0.089 -0.085 -0.082 -0.078 -0.076 -0.079 -0.080 -0.079 -0.077 -0.076 -0.074 -0.073 -0.072 -0.070 -0.069 -0.067 -0.066 -0.065 -0.063 -0.062 -0.064 -0.066 -0.063 -0.057 -0.055 -0.055 -0.054 -0.054 -0.053 -0.053 -0.052 -0.052 -0.051 -0.051 -0.050 -0.050 -0.050 -0.049 -0.049 -0.048 -0.048 -0.047 -0.047 -0.046 -0.046 -0.045 -0.045 -0.044 -0.044 -0.043 -0.043 -0.043 -0.042 -0.042 -0.041 -0.041 -0.040 -0.040 -0.039 -0.039 -0.038 -0.038 -0.037 -0.037 -0.036 -0.036 -0.035 -0.035 -0.035 -0.034 -0.034 -0.033 -0.033 -0.032 -0.032 -0.031 -0.031 -0.030 -0.030 -0.029 -0.029 -0.028 -0.028 -0.027 -0.027 -0.026 -0.026 -0.025 -0.025 -0.025 -0.024 -0.024 -0.023 -0.023 -0.022 -0.022
0.103 0.093 0.084 0.074 0.064 0.054 0.044 0.035 0.025 0.015 0.005 -0.005 -0.014 -0.024 -0.034 -0.014 0.006 0.041 0.085 0.129 0.173 0.216 0.200 0.145 0.089 0.034 -0.022 -0.077 -0.133 -0.189 -0.181 -0.164 -0.153 -0.153 -0.152 -0.152 -0.151 -0.151 -0.151 -0.150 -0.150 -0.149 -0.149 -0.148 -0.148 -0.147 -0.147 -0.146 -0.146 -0.145 -0.145 -0.144 -0.144 -0.143 -0.143 -0.143 -0.142 -0.142 -0.141 -0.141 -0.140 -0.140 -0.139 -0.139 -0.138 -0.138 -0.137 -0.137 -0.136 -0.136 -0.136 -0.135 -0.135 -0.134 -0.134 -0.133 -0.133 -0.132 -0.132 -0.143 -0.191 -0.154 -0.153 -0.152 -0.152 -0.151 -0.151 -0.150 -0.149 -0.149 -0.148 -0.147 -0.147 -0.146 -0.146 -0.145 -0.144 -0.144 -0.143 -0.142 -0.142 -0.141 -0.141 -0.140 -0.139 -0.139 -0.138 -0.137 -0.137 -0.136 -0.136 -0.135 -0.134 -0.134 -0.133 -0.132 -0.132 -0.131 -0.131 -0.130 -0.129 -0.129 -0.128 -0.127 -0.127 -0.126 -0.126 -0.125 -0.124 -0.156 -0.216 -0.290 -0.290 -0.289 -0.289 -0.288 -0.287 -0.287 -0.286 -0.285 -0.285 -0.284 -0.284 -0.283 -0.282 -0.282 -0.281 -0.280 -0.280 -0.279 -0.279 -0.278 -0.277 -0.277 -0.276 -0.275 -0.275 -0.274 -0.274 -0.273 -0.272 -0.272 -0.271 -0.270 -0.270 -0.269 -0.269 -0.268 -0.267 -0.267 -0.266 -0.265 -0.265 -0.264 -0.264 -0.263 -0.262 -0.262 -0.261 -0.260 -0.180 -0.168 -0.157 -0.146 -0.135 -0.123 -0.109 -0.093 -0.078 -0.062 -0.047 -0.031 -0.016 -0.001 0.015 0.030 0.046 0.061 0.077 0.088 0.100 0.111 0.123 0.135 0.146 0.158 0.169 0.181 0.196 0.112 0.091 0.101 0.112 0.123 0.140 0.220 0.300 0.178 0.041 -0.103 -0.377 -0.594 -0.565 -0.395 -0.233 -0.154 -0.074 0.005 0.084 0.163 -0.432 -0.344 -0.250 -0.156 -0.061 0.033 0.127 0.221 0.315 0.410 0.457 0.484 0.558 0.543 0.436 0.329 0.221 0.114 0.006 -0.101 -0.208 -0.302 -0.393 -0.484 -0.578 -0.484 -0.354 -0.224 -0.094 0.036 0.166 0.345 0.429 0.304 0.179 0.055 -0.070 -0.195 -0.320 -0.444 -0.569 -0.519 -0.443 -0.366 -0.290 -0.214 -0.137 -0.061 0.015 -0.394 -0.146 -0.143 -0.140 -0.137 -0.134 -0.131 -0.129 -0.126 -0.123 -0.120 -0.117 -0.114 -0.111 -0.108 -0.105 -0.103 -0.100 -0.107 -0.116 -0.125 -0.134 -0.133 -0.129 -0.124 -0.119 -0.115 -0.110 -0.106 -0.101 -0.096 -0.092 -0.087 -0.083 -0.078 -0.073 -0.069 -0.064 -0.060 -0.056 -0.062 -0.067 -0.073 -0.078 -0.084 -0.090 -0.095 -0.101 -0.106 -0.112 -0.118 -0.076 -0.088 -0.119 -0.145 -0.132 -0.118 -0.113 -0.153 -0.132 -0.128 -0.131 -0.135 -0.138 -0.140 -0.136 -0.132 -0.129 -0.125 -0.121 -0.118 -0.114 -0.111 -0.107 -0.103 -0.100 -0.096 -0.092 -0.089 -0.085 -0.081 -0.078 -0.081 -0.080 -0.079 -0.078 -0.076 -0.075 -0.073 -0.072 -0.071 -0.069 -0.070 -0.072 -0.074 -0.076 -0.078 -0.072 -0.065 -0.060 -0.058 -0.056 -0.055 -0.055 -0.054 -0.054 -0.053 -0.053 -0.052 -0.052 -0.051 -0.051 -0.050 -0.050 -0.050 -0.049 -0.049 -0.048 -0.048 -0.047 -0.047 -0.046 -0.046 -0.045 -0.045 -0.044 -0.044 -0.043 -0.043 -0.043 -0.042 -0.042 -0.041 -0.041 -0.040 -0.040 -0.039 -0.039 -0.038 -0.038 -0.037 -0.037 -0.036 -0.036 -0.035 -0.035 -0.035 -0.034 -0.034 -0.033 -0.032 -0.032 -0.031 -0.031 -0.030 -0.030 -0.030 -0.029 -0.029 -0.028 -0.028 -0.027 -0.027 -0.026 -0.026 -0.025 -0.025 -0.024 -0.024 -0.023 -0.023 -0.022 -0.022
0.107 0.097 0.088 0.078 0.068 0.058 0.048 0.039 0.029 0.019 0.009 -0.001 -0.010 -0.020 -0.017 0.004 0.027 0.071 0.115 0.159 0.202 0.246 0.212 0.157 0.101 0.045 -0.010 -0.066 -0.121 -0.157 -0.140 -0.123 -0.107 -0.099 -0.098 -0.098 -0.097 -0.097 -0.097 -0.096 -0.096 -0.095 -0.095 -0.094 -0.094 -0.093 -0.093 -0.092 -0.092 -0.091 -0.091 -0.090 -0.090 -0.089 -0.089 -0.089 -0.088 -0.088 -0.087 -0.087 -0.086 -0.086 -0.085 -0.085 -0.084 -0.084 -0.083 -0.083 -0.082 -0.082 -0.082 -0.081 -0.081 -0.080 -0.080 -0.079 -0.079 -0.078 -0.078 -0.117 -0.165 -0.111 -0.110 -0.110 -0.109 -0.109 -0.108 -0.107 -0.107 -0.106 -0.105 -0.105 -0.104 -0.104 -0.103 -0.102 -0.102 -0.101 -0.100 -0.100 -0.099 -0.099 -0.098 -0.097 -0.097 -0.096 -0.095 -0.095 -0.094 -0.094 -0.093 -0.092 -0.092 -0.091 -0.090 -0.090 -0.089 -0.089 -0.088 -0.087 -0.087 -0.086 -0.085 -0.085 -0.084 -0.084 -0.083 -0.082 -0.104 -0.152 -0.217 -0.308 -0.329 -0.328 -0.327 -0.327 -0.326 -0.326 -0.325 -0.324 -0.324 -0.323 -0.322 -0.322 -0.321 -0.321 -0.320 -0.319 -0.319 -0.318 -0.317 -0.317 -0.316 -0.316 -0.315 -0.314 -0.314 -0.313 -0.312 -0.312 -0.311 -0.311 -0.310 -0.309 -0.309 -0.308 -0.307 -0.307 -0.306 -0.306 -0.305 -0.304 -0.304 -0.303 -0.302 -0.302 -0.301 -0.301 -0.300 -0.262 -0.180 -0.169 -0.157 -0.146 -0.135 -0.124 -0.112 -0.101 -0.088 -0.073 -0.058 -0.042 -0.027 -0.011 0.004 0.020 0.035 0.050 0.066 0.081 0.097 0.112 0.128 0.143 0.158 0.174 0.189 0.204 0.209 0.220 0.231 0.242 0.252 0.263 0.330 0.410 0.490 0.357 0.083 -0.191 -0.465 -0.552 -0.567 -0.430 -0.260 -0.089 0.081 0.192 0.271 0.351 -0.537 -0.487 -0.393 -0.298 -0.204 -0.110 -0.016 0.078 0.173 0.269 0.364 0.460 0.546 0.535 0.445 0.354 0.263 0.172 0.082 -0.009 -0.100 -0.191 -0.282 -0.372 -0.476 -0.581 -0.451 -0.321 -0.191 -0.062 0.068 0.241 0.445 0.338 0.213 0.088 -0.036 -0.161 -0.286 -0.411 -0.434 -0.390 -0.341 -0.292 -0.242 -0.193 -0.133 -0.056 -0.183 -0.347 -0.160 -0.157 -0.154 -0.151 -0.148 -0.145 -0.142 -0.140 -0.137 -0.134 -0.131 -0.128 -0.125 -0.122 -0.119 -0.116 -0.114 -0.111 -0.108 -0.105 -0.102 -0.099 -0.096 -0.093 -0.091 -0.099 -0.108 -0.117 -0.126 -0.135 -0.144 -0.142 -0.137 -0.133 -0.128 -0.124 -0.119 -0.114 -0.110 -0.105 -0.101 -0.096 -0.096 -0.102 -0.108 -0.113 -0.119 -0.124 -0.130 -0.123 -0.088 -0.066 -0.075 -0.106 -0.121 -0.107 -0.094 -0.080 -0.067 -0.054 -0.040 -0.081 -0.128 -0.143 -0.139 -0.136 -0.132 -0.128 -0.125 -0.121 -0.118 -0.114 -0.110 -0.107 -0.103 -0.099 -0.096 -0.092 -0.088 -0.085 -0.081 -0.082 -0.081 -0.079 -0.078 -0.076 -0.077 -0.079 -0.081 -0.082 -0.084 -0.086 -0.088 -0.088 -0.081 -0.074 -0.068 -0.063 -0.061 -0.058 -0.056 -0.056 -0.055 -0.055 -0.054 -0.054 -0.053 -0.053 -0.052 -0.052 -0.051 -0.051 -0.050 -0.050 -0.050 -0.049 -0.049 -0.048 -0.048 -0.047 -0.047 -0.046 -0.046 -0.045 -0.045 -0.044 -0.044 -0.043 -0.043 -0.043 -0.042 -0.042 -0.041 -0.041 -0.040 -0.040 -0.039 -0.039 -0.038 -0.038 -0.037 -0.037 -0.036 -0.036 -0.035 -0.035 -0.035 -0.034 -0.033 -0.033 -0.032 -0.032 -0.031 -0.031 -0.030 -0.030 -0.029 -0.029 -0.028 -0.028 -0.027 -0.027 -0.027 -0.026 -0.026 -0.025 -0.025 -0.024 -0.024 -0.023 -0.023 -0.022
0.111 0.101 0.092 0.082 0.072 0.062 0.052 0.043 0.033 0.023 0.013 0.003 -0.006 -0.016 0.001 0.021 0.057 0.101 0.145 0.188 0.232 0.276 0.224 0.168 0.113 0.057 0.002 -0.054 -0.109 -0.116 -0.099 -0.082 -0.066 -0.049 -0.044 -0.044 -0.043 -0.043 -0.043 -0.042 -0.042 -0.041 -0.041 -0.040 -0.040 -0.039 -0.039 -0.038 -0.038 -0.037 -0.037 -0.036 -0.036 -0.035 -0.035 -0.035 -0.034 -0.034 -0.033 -0.033 -0.032 -0.032 -0.031 -0.031 -0.030 -0.030 -0.029 -0.029 -0.028 -0.028 -0.028 -0.027 -0.027 -0.026 -0.026 -0.025 -0.025 -0.024 -0.043 -0.091 -0.139 -0.087 -0.068 -0.067 -0.067 -0.066 -0.065 -0.065 -0.064 -0.063 -0.063 -0.062 -0.062 -0.061 -0.060 -0.060 -0.059 -0.058 -0.058 -0.057 -0.057 -0.056 -0.055 -0.055 -0.054 -0.053 -0.053 -0.052 -0.052 -0.051 -0.050 -0.050 -0.049 -0.048 -0.048 -0.047 -0.047 -0.046 -0.045 -0.045 -0.044 -0.043 -0.043 -0.042 -0.042 -0.041 -0.040 -0.051 -0.099 -0.152 -0.217 -0.308 -0.367 -0.367 -0.366 -0.366 -0.365 -0.364 -0.364 -0.363 -0.362 -0.362 -0.361 -0.361 -0.360 -0.359 -0.359 -0.358 -0.357 -0.357 -0.356 -0.356 -0.355 -0.354 -0.354 -0.353 -0.352 -0.352 -0.351 -0.351 -0.350 -0.349 -0.349 -0.348 -0.347 -0.347 -0.346 -0.346 -0.345 -0.344 -0.344 -0.343 -0.342 -0.342 -0.341 -0.341 -0.340 -0.339 -0.339 -0.262 -0.180 -0.169 -0.158 -0.146 -0.135 -0.124 -0.113 -0.101 -0.090 -0.079 -0.067 -0.053 -0.037 -0.022 -0.007 0.009 0.024 0.040 0.055 0.070 0.086 0.101 0.117 0.132 0.148 0.163 0.178 0.194 0.216 0.250 0.284 0.318 0.351 0.349 0.366 0.383 0.401 0.269 -0.005 -0.279 -0.495 -0.509 -0.524 -0.465 -0.295 -0.124 0.046 0.216 0.386 0.538 -0.601 -0.625 -0.530 -0.434 -0.339 -0.243 -0.147 -0.052 0.044 0.139 0.235 0.321 0.394 0.493 0.556 0.465 0.374 0.284 0.193 0.102 0.011 -0.079 -0.170 -0.261 -0.373 -0.495 -0.549 -0.419 -0.289 -0.159 -0.029 0.137 0.340 0.372 0.247 0.122 -0.003 -0.127 -0.252 -0.317 -0.273 -0.229 -0.185 -0.136 -0.087 -0.037 0.012 0.006 -0.250 -0.297 -0.174 -0.171 -0.168 -0.165 -0.162 -0.159 -0.156 -0.154 -0.151 -0.148 -0.145 -0.142 -0.139 -0.136 -0.133 -0.130 -0.128 -0.125 -0.122 -0.119 -0.116 -0.113 -0.110 -0.107 -0.104 -0.102 -0.099 -0.096 -0.093 -0.090 -0.087 -0.084 -0.083 -0.092 -0.101 -0.110 -0.119 -0.128 -0.137 -0.146 -0.155 -0.151 -0.146 -0.142 -0.137 -0.132 -0.137 -0.142 -0.148 -0.128 -0.105 -0.083 -0.061 -0.063 -0.094 -0.096 -0.083 -0.069 -0.056 -0.043 -0.029 -0.023 -0.022 -0.081 -0.109 -0.112 -0.112 -0.110 -0.108 -0.107 -0.105 -0.103 -0.101 -0.099 -0.097 -0.095 -0.094 -0.092 -0.090 -0.088 -0.084 -0.083 -0.085 -0.087 -0.089 -0.091 -0.093 -0.095 -0.096 -0.098 -0.100 -0.097 -0.090 -0.083 -0.076 -0.071 -0.066 -0.064 -0.061 -0.059 -0.057 -0.056 -0.056 -0.055 -0.055 -0.054 -0.054 -0.053 -0.053 -0.052 -0.052 -0.051 -0.051 -0.050 -0.050 -0.050 -0.049 -0.049 -0.048 -0.048 -0.047 -0.047 -0.046 -0.046 -0.045 -0.045 -0.044 -0.044 -0.043 -0.043 -0.043 -0.042 -0.042 -0.041 -0.041 -0.040 -0.040 -0.039 -0.039 -0.038 -0.038 -0.037 -0.037 -0.036 -0.036 -0.035 -0.035 -0.034 -0.034 -0.033 -0.032 -0.032 -0.032 -0.031 -0.031 -0.030 -0.030 -0.029 -0.029 -0.028 -0.028 -0.027 -0.027 -0.026 -0.026 -0.025 -0.025 -0.025 -0.024 -0.024 -0.023 -0.023
0.115 0.105 0.096 0.086 0.076 0.066 0.056 0.047 0.037 0.027 0.017 0.007 -0.002 -0.001 0.019 0.043 0.087 0.131 0.174 0.218 0.262 0.291 0.236 0.180 0.125 0.069 0.014 -0.042 -0.092 -0.075 -0.058 -0.042 -0.025 -0.008 0.008 0.010 0.011 0.011 0.011 0.012 0.012 0.013 0.013 0.014 0.014 0.015 0.015 0.016 0.016 0.017 0.017 0.018 0.018 0.018 0.019 0.019 0.020 0.020 0.021 0.021 0.022 0.022 0.023 0.023 0.024 0.024 0.025 0.025 0.026 0.026 0.026 0.027 0.027 0.028 0.028 0.029 0.029 0.030 -0.017 -0.065 -0.113 -0.076 -0.025 -0.025 -0.024 -0.023 -0.023 -0.022 -0.022 -0.021 -0.020 -0.020 -0.019 -0.018 -0.018 -0.017 -0.017 -0.016 -0.015 -0.015 -0.014 -0.013 -0.013 -0.012 -0.012 -0.011 -0.010 -0.010 -0.009 -0.008 -0.008 -0.007 -0.007 -0.006 -0.005 -0.005 -0.004 -0.003 -0.003 -0.002 -0.002 -0.001 -0.000 0.000 0.001 0.002 0.002 -0.047 -0.095 -0.152 -0.217 -0.308 -0.400 -0.406 -0.405 -0.404 -0.404 -0.403 -0.403 -0.402 -0.401 -0.401 -0.400 -0.399 -0.399 -0.398 -0.398 -0.397 -0.396 -0.396 -0.395 -0.394 -0.394 -0.393 -0.393 -0.392 -0.391 -0.391 -0.390 -0.389 -0.389 -0.388 -0.388 -0.387 -0.386 -0.386 -0.385 -0.384 -0.384 -0.383 -0.383 -0.382 -0.381 -0.381 -0.380 -0.379 -0.379 -0.378 -0.347 -0.262 -0.181 -0.169 -0.158 -0.147 -0.135 -0.124 -0.113 -0.102 -0.090 -0.079 -0.068 -0.056 -0.045 -0.033 -0.017 -0.002 0.013 0.029 0.044 0.060 0.075 0.091 0.106 0.121 0.137 0.152 0.168 0.183 0.199 0.233 0.267 0.300 0.334 0.283 0.179 0.196 0.213 0.127 -0.093 -0.366 -0.452 -0.467 -0.482 -0.496 -0.330 -0.159 0.015 0.190 0.365 0.471 -0.493 -0.652 -0.659 -0.564 -0.468 -0.372 -0.277 -0.181 -0.086 0.010 0.100 0.172 0.245 0.339 0.441 0.543 0.486 0.395 0.304 0.213 0.123 0.032 -0.059 -0.150 -0.270 -0.392 -0.515 -0.516 -0.386 -0.256 -0.127 0.032 0.236 0.406 0.281 0.156 0.031 -0.093 -0.200 -0.156 -0.112 -0.068 -0.024 0.020 0.069 0.118 0.066 -0.053 -0.196 -0.246 -0.188 -0.185 -0.182 -0.179 -0.176 -0.173 -0.170 -0.168 -0.165 -0.162 -0.159 -0.156 -0.153 -0.150 -0.147 -0.144 -0.142 -0.139 -0.136 -0.133 -0.130 -0.127 -0.124 -0.121 -0.118 -0.116 -0.113 -0.110 -0.107 -0.104 -0.101 -0.098 -0.095 -0.092 -0.090 -0.087 -0.084 -0.081 -0.078 -0.075 -0.076 -0.085 -0.094 -0.103 -0.112 -0.121 -0.130 -0.139 -0.148 -0.145 -0.123 -0.101 -0.078 -0.056 -0.050 -0.081 -0.072 -0.058 -0.045 -0.031 -0.021 -0.020 -0.018 -0.017 -0.050 -0.071 -0.074 -0.077 -0.080 -0.079 -0.077 -0.076 -0.077 -0.085 -0.094 -0.103 -0.112 -0.116 -0.092 -0.069 -0.121 -0.099 -0.101 -0.103 -0.105 -0.107 -0.109 -0.110 -0.112 -0.106 -0.099 -0.092 -0.085 -0.078 -0.074 -0.069 -0.067 -0.064 -0.062 -0.059 -0.057 -0.057 -0.056 -0.056 -0.055 -0.055 -0.054 -0.054 -0.053 -0.053 -0.052 -0.052 -0.051 -0.051 -0.050 -0.050 -0.050 -0.049 -0.049 -0.048 -0.048 -0.047 -0.047 -0.046 -0.046 -0.045 -0.045 -0.044 -0.044 -0.043 -0.043 -0.043 -0.042 -0.042 -0.041 -0.041 -0.040 -0.040 -0.039 -0.039 -0.038 -0.038 -0.037 -0.037 -0.036 -0.036 -0.035 -0.035 -0.034 -0.033 -0.033 -0.032 -0.032 -0.031 -0.031 -0.030 -0.030 -0.030 -0.029 -0.029 -0.028 -0.028 -0.027 -0.027 -0.026 -0.026 -0.025 -0.025 -0.024 -0.024 -0.023 -0.023
0.119 0.109 0.100 0.090 0.080 0.070 0.060 0.051 0.041 0.031 0.021 0.011 0.002 0.016 0.036 0.073 0.117 0.160 0.204 0.248 0.291 0.303 0.248 0.192 0.136 0.081 0.025 -0.030 -0.051 -0.034 -0.017 -0.001 0.016 0.032 0.049 0.064 0.065 0.065 0.065 0.066 0.066 0.067 0.067 0.068 0.068 0.069 0.069 0.070 0.070 0.071 0.071 0.072 0.072 0.072 0.073 0.073 0.074 0.074 0.075 0.075 0.076 0.076 0.077 0.077 0.078 0.078 0.079 0.079 0.080 0.080 0.080 0.081 0.081 0.082 0.082 0.083 0.083 0.057 0.009 -0.039 -0.087 -0.065 0.017 0.018 0.019 0.019 0.020 0.020 0.021 0.022 0.022 0.023 0.024 0.024 0.025 0.025 0.026 0.027 0.027 0.028 0.029 0.029 0.030 0.030 0.031 0.032 0.032 0.033 0.034 0.034 0.035 0.035 0.036 0.037 0.037 0.038 0.039 0.039 0.040 0.040 0.041 0.042 0.042 0.043 0.044 0.044 0.006 -0.042 -0.091 -0.152 -0.217 -0.309 -0.400 -0.445 -0.444 -0.443 -0.443 -0.442 -0.441 -0.441 -0.440 -0.440 -0.439 -0.438 -0.438 -0.437 -0.436 -0.436 -0.435 -0.435 -0.434 -0.433 -0.433 -0.432 -0.431 -0.431 -0.430 -0.430 -0.429 -0.428 -0.428 -0.427 -0.426 -0.426 -0.425 -0.425 -0.424 -0.423 -0.423 -0.422 -0.421 -0.421 -0.420 -0.420 -0.419 -0.418 -0.418 -0.417 -0.348 -0.263 -0.181 -0.170 -0.158 -0.147 -0.136 -0.124 -0.113 -0.102 -0.091 -0.079 -0.068 -0.057 -0.045 -0.034 -0.023 -0.011 0.003 0.018 0.034 0.049 0.064 0.080 0.095 0.111 0.126 0.142 0.157 0.172 0.188 0.216 0.249 0.283 0.317 0.242 0.135 0.028 0.026 -0.043 -0.201 -0.395 -0.410 -0.416 -0.397 -0.377 -0.349 -0.174 0.001 0.176 0.314 0.373 -0.384 -0.597 -0.628 -0.653 -0.598 -0.502 -0.406 -0.311 -0.215 -0.121 -0.049 0.024 0.096 0.184 0.286 0.389 0.491 0.506 0.416 0.325 0.234 0.143 0.052 -0.045 -0.167 -0.290 -0.412 -0.534 -0.484 -0.354 -0.224 -0.072 0.132 0.335 0.315 0.190 0.065 -0.060 -0.040 0.004 0.048 0.092 0.137 0.181 0.225 0.126 0.007 -0.112 -0.142 -0.205 -0.202 -0.199 -0.196 -0.193 -0.190 -0.187 -0.184 -0.182 -0.179 -0.176 -0.173 -0.170 -0.167 -0.164 -0.161 -0.158 -0.156 -0.153 -0.150 -0.147 -0.144 -0.141 -0.138 -0.135 -0.132 -0.130 -0.127 -0.124 -0.121 -0.118 -0.115 -0.112 -0.109 -0.106 -0.104 -0.101 -0.098 -0.095 -0.092 -0.089 -0.086 -0.083 -0.080 -0.078 -0.075 -0.072 -0.069 -0.066 -0.070 -0.083 -0.097 -0.110 -0.096 -0.073 -0.051 -0.038 -0.060 -0.047 -0.034 -0.020 -0.018 -0.016 -0.015 -0.014 -0.013 -0.018 -0.033 -0.036 -0.051 -0.068 -0.088 -0.111 -0.133 -0.156 -0.135 -0.111 -0.088 -0.064 -0.041 -0.123 -0.124 -0.042 -0.117 -0.119 -0.121 -0.123 -0.123 -0.115 -0.108 -0.101 -0.094 -0.087 -0.081 -0.077 -0.072 -0.069 -0.067 -0.065 -0.062 -0.060 -0.058 -0.057 -0.057 -0.056 -0.056 -0.055 -0.055 -0.054 -0.054 -0.053 -0.053 -0.052 -0.052 -0.051 -0.051 -0.050 -0.050 -0.050 -0.049 -0.049 -0.048 -0.048 -0.047 -0.047 -0.046 -0.046 -0.045 -0.045 -0.044 -0.044 -0.043 -0.043 -0.043 -0.042 -0.042 -0.041 -0.041 -0.040 -0.040 -0.039 -0.039 -0.038 -0.038 -0.037 -0.037 -0.036 -0.036 -0.035 -0.034 -0.034 -0.033 -0.033 -0.032 -0.032 -0.031 -0.031 -0.030 -0.030 -0.029 -0.029 -0.028 -0.028 -0.027 -0.027 -0.027 -0.026 -0.026 -0.025 -0.025 -0.024 -0.024 -0.023
0.123 0.113 0.104 0.094 0.084 0.074 0.064 0.055 0.045 0.035 0.025 0.016 0.014 0.034 0.059 0.103 0.146 0.190 0.234 0.277 0.321 0.315 0.259 0.204 0.148 0.093 0.037 -0.018 -0.010 0.007 0.023 0.040 0.057 0.073 0.090 0.107 0.118 0.119 0.119 0.120 0.120 0.121 0.121 0.122 0.122 0.123 0.123 0.124 0.124 0.125 0.125 0.126 0.126 0.126 0.127 0.127 0.128 0.128 0.129 0.129 0.130 0.130 0.131 0.131 0.132 0.132 0.133 0.133 0.133 0.134 0.134 0.135 0.135 0.136 0.136 0.137 0.131 0.083 0.035 -0.013 -0.061 -0.053 0.050 0.061 0.061 0.062 0.062 0.063 0.064 0.064 0.065 0.066 0.066 0.067 0.067 0.068 0.069 0.069 0.070 0.071 0.071 0.072 0.072 0.073 0.074 0.074 0.075 0.076 0.076 0.077 0.077 0.078 0.079 0.079 0.080 0.081 0.081 0.082 0.082 0.083 0.084 0.084 0.085 0.086 0.086 0.059 0.010 -0.038 -0.089 -0.153 -0.218 -0.309 -0.400 -0.483 -0.483 -0.482 -0.482 -0.481 -0.480 -0.480 -0.479 -0.478 -0.478 -0.477 -0.477 -0.476 -0.475 -0.475 -0.474 -0.473 -0.473 -0.472 -0.472 -0.471 -0.470 -0.470 -0.469 -0.468 -0.468 -0.467 -0.467 -0.466 -0.465 -0.465 -0.464 -0.463 -0.463 -0.462 -0.462 -0.461 -0.460 -0.460 -0.459 -0.458 -0.458 -0.457 -0.457 -0.433 -0.348 -0.263 -0.181 -0.170 -0.159 -0.147 -0.136 -0.125 -0.113 -0.102 -0.091 -0.080 -0.068 -0.057 -0.046 -0.034 -0.023 -0.012 -0.000 0.011 0.023 0.038 0.054 0.069 0.085 0.100 0.115 0.131 0.146 0.162 0.177 0.198 0.232 0.266 0.273 0.200 0.093 -0.014 -0.120 -0.212 -0.261 -0.260 -0.241 -0.222 -0.204 -0.211 -0.363 -0.188 -0.013 0.158 0.216 0.275 -0.276 -0.535 -0.578 -0.603 -0.629 -0.631 -0.536 -0.440 -0.345 -0.270 -0.198 -0.125 -0.053 0.029 0.131 0.234 0.336 0.439 0.527 0.436 0.345 0.255 0.164 0.058 -0.064 -0.187 -0.309 -0.431 -0.554 -0.451 -0.321 -0.177 0.027 0.231 0.348 0.224 0.099 0.077 0.121 0.165 0.209 0.253 0.222 0.174 0.220 0.084 -0.052 -0.172 -0.180 -0.219 -0.216 -0.213 -0.210 -0.207 -0.204 -0.201 -0.198 -0.195 -0.193 -0.190 -0.187 -0.184 -0.181 -0.178 -0.175 -0.172 -0.169 -0.167 -0.164 -0.161 -0.158 -0.155 -0.152 -0.149 -0.146 -0.143 -0.141 -0.138 -0.135 -0.132 -0.129 -0.126 -0.122 -0.115 -0.108 -0.101 -0.094 -0.087 -0.080 -0.073 -0.066 -0.060 -0.055 -0.056 -0.057 -0.058 -0.060 -0.061 -0.062 -0.058 -0.053 -0.047 -0.046 -0.059 -0.068 -0.046 -0.025 -0.036 -0.023 -0.016 -0.014 -0.013 -0.012 -0.011 -0.011 -0.017 -0.012 -0.030 -0.048 -0.065 -0.083 -0.105 -0.128 -0.150 -0.118 -0.082 -0.047 -0.013 -0.015 -0.015 -0.016 -0.016 -0.133 -0.135 -0.132 -0.124 -0.117 -0.110 -0.103 -0.096 -0.089 -0.084 -0.080 -0.076 -0.072 -0.070 -0.067 -0.065 -0.063 -0.060 -0.058 -0.058 -0.057 -0.057 -0.056 -0.056 -0.055 -0.055 -0.054 -0.054 -0.053 -0.053 -0.052 -0.052 -0.051 -0.051 -0.050 -0.050 -0.050 -0.049 -0.049 -0.048 -0.048 -0.047 -0.047 -0.046 -0.046 -0.045 -0.045 -0.044 -0.044 -0.043 -0.043 -0.043 -0.042 -0.042 -0.041 -0.041 -0.040 -0.040 -0.039 -0.039 -0.038 -0.038 -0.037 -0.037 -0.036 -0.035 -0.035 -0.034 -0.033 -0.033 -0.032 -0.032 -0.032 -0.031 -0.031 -0.030 -0.030 -0.029 -0.029 -0.028 -0.028 -0.027 -0.027 -0.026 -0.026 -0.025 -0.025 -0.025 -0.024 -0.024
0.127 0.117 0.108 0.098 0.088 0.078 0.068 0.059 0.049 0.039 0.029 0.020 0.031 0.052 0.089 0.132 0.176 0.220 0.263 0.307 0.351 0.327 0.271 0.216 0.160 0.105 0.049 0.014 0.031 0.047 0.064 0.081 0.097 0.114 0.131 0.147 0.164 0.173 0.173 0.174 0.174 0.175 0.175 0.176 0.176 0.177 0.177 0.178 0.178 0.179 0.179 0.180 0.180 0.180 0.181 0.181 0.182 0.182 0.183 0.183 0.184 0.184 0.185 0.185 0.186 0.186 0.187 0.187 0.187 0.188 0.188 0.189 0.189 0.190 0.190 0.191 0.157 0.109 0.061 0.013 -0.035 -0.042 0.061 0.103 0.104 0.104 0.105 0.106 0.106 0.107 0.108 0.108 0.109 0.109 0.110 0.111 0.111 0.112 0.113 0.113 0.114 0.114 0.115 0.116 0.116 0.117 0.118 0.118 0.119 0.119 0.120 0.121 0.121 0.122 0.123 0.123 0.124 0.124 0.125 0.126 0.126 0.127 0.128 0.128 0.111 0.063 0.015 -0.034 -0.089 -0.153 -0.218 -0.309 -0.401 -0.492 -0.522 -0.521 -0.520 -0.520 -0.519 -0.519 -0.518 -0.517 -0.517 -0.516 -0.515 -0.515 -0.514 -0.514 -0.513 -0.512 -0.512 -0.511 -0.510 -0.510 -0.509 -0.509 -0.508 -0.507 -0.507 -0.506 -0.505 -0.505 -0.504 -0.504 -0.503 -0.502 -0.502 -0.501 -0.500 -0.500 -0.499 -0.499 -0.498 -0.497 -0.497 -0.496 -0.495 -0.434 -0.348 -0.263 -0.182 -0.170 -0.159 -0.148 -0.136 -0.125 -0.114 -0.102 -0.091 -0.080 -0.069 -0.057 -0.046 -0.035 -0.023 -0.012 -0.001 0.011 0.022 0.033 0.045 0.058 0.074 0.089 0.105 0.120 0.135 0.151 0.166 0.182 0.215 0.249 0.227 0.154 0.052 -0.055 -0.162 -0.092 -0.060 -0.066 -0.048 -0.029 -0.007 -0.065 -0.273 -0.202 -0.027 0.060 0.118 0.177 -0.167 -0.474 -0.520 -0.553 -0.579 -0.604 -0.630 -0.570 -0.491 -0.419 -0.347 -0.274 -0.202 -0.126 -0.023 0.079 0.181 0.284 0.386 0.489 0.457 0.366 0.275 0.161 0.038 -0.084 -0.206 -0.329 -0.451 -0.549 -0.419 -0.281 -0.077 0.127 0.330 0.258 0.194 0.238 0.282 0.260 0.199 0.138 0.115 0.164 0.202 0.112 -0.078 -0.231 -0.239 -0.233 -0.230 -0.227 -0.224 -0.221 -0.218 -0.215 -0.212 -0.209 -0.207 -0.204 -0.201 -0.198 -0.195 -0.192 -0.189 -0.186 -0.180 -0.173 -0.166 -0.159 -0.152 -0.146 -0.139 -0.132 -0.125 -0.118 -0.111 -0.104 -0.097 -0.090 -0.084 -0.077 -0.070 -0.063 -0.056 -0.049 -0.045 -0.046 -0.047 -0.049 -0.050 -0.051 -0.052 -0.054 -0.055 -0.056 -0.058 -0.059 -0.060 -0.059 -0.054 -0.048 -0.043 -0.038 -0.032 -0.027 -0.022 -0.019 -0.014 -0.012 -0.017 -0.024 -0.030 -0.037 -0.043 -0.036 -0.006 -0.026 -0.044 -0.062 -0.080 -0.099 -0.122 -0.144 -0.121 -0.075 -0.040 -0.004 0.000 0.000 0.000 -0.010 -0.139 -0.134 -0.126 -0.119 -0.112 -0.105 -0.098 -0.091 -0.087 -0.083 -0.079 -0.075 -0.073 -0.070 -0.068 -0.066 -0.063 -0.061 -0.058 -0.058 -0.058 -0.057 -0.057 -0.056 -0.056 -0.055 -0.055 -0.054 -0.054 -0.053 -0.053 -0.052 -0.052 -0.051 -0.051 -0.050 -0.050 -0.050 -0.049 -0.049 -0.048 -0.048 -0.047 -0.047 -0.046 -0.046 -0.045 -0.045 -0.044 -0.044 -0.043 -0.043 -0.043 -0.042 -0.042 -0.041 -0.041 -0.040 -0.040 -0.039 -0.039 -0.038 -0.037 -0.037 -0.036 -0.036 -0.035 -0.034 -0.034 -0.033 -0.033 -0.032 -0.032 -0.031 -0.031 -0.030 -0.030 -0.030 -0.029 -0.029 -0.028 -0.028 -0.027 -0.027 -0.026 -0.026 -0.025 -0.025 -0.024 -0.024
0.131 0.121 0.112 0.102 0.092 0.082 0.072 0.063 0.053 0.043 0.033 0.029 0.049 0.075 0.118 0.162 0.206 0.249 0.293 0.337 0.381 0.339 0.283 0.227 0.172 0.116 0.061 0.055 0.072 0.088 0.105 0.122 0.138 0.155 0.171 0.188 0.205 0.221 0.227 0.228 0.228 0.229 0.229 0.230 0.230 0.231 0.231 0.232 0.232 0.233 0.233 0.234 0.234 0.234 0.235 0.235 0.236 0.236 0.237 0.237 0.238 0.238 0.239 0.239 0.240 0.240 0.241 0.241 0.241 0.242 0.242 0.243 0.243 0.244 0.244 0.231 0.183 0.135 0.087 0.039 -0.009 -0.031 0.073 0.146 0.146 0.147 0.148 0.148 0.149 0.149 0.150 0.151 0.151 0.152 0.153 0.153 0.154 0.154 0.155 0.156 0.156 0.157 0.158 0.158 0.159 0.159 0.160 0.161 0.161 0.162 0.163 0.163 0.164 0.164 0.165 0.166 0.166 0.167 0.168 0.168 0.169 0.169 0.170 0.164 0.116 0.067 0.019 -0.029 -0.090 -0.153 -0.218 -0.310 -0.401 -0.492 -0.560 -0.560 -0.559 -0.559 -0.558 -0.557 -0.557 -0.556 -0.555 -0.555 -0.554 -0.554 -0.553 -0.552 -0.552 -0.551 -0.550 -0.550 -0.549 -0.549 -0.548 -0.547 -0.547 -0.546 -0.545 -0.545 -0.544 -0.544 -0.543 -0.542 -0.542 -0.541 -0.540 -0.540 -0.539 -0.539 -0.538 -0.537 -0.537 -0.536 -0.535 -0.535 -0.519 -0.434 -0.349 -0.263 -0.182 -0.171 -0.159 -0.148 -0.137 -0.125 -0.114 -0.103 -0.091 -0.080 -0.069 -0.058 -0.046 -0.035 -0.024 -0.012 -0.001 0.010 0.022 0.033 0.044 0.056 0.067 0.078 0.094 0.109 0.125 0.140 0.156 0.171 0.198 0.231 0.181 0.108 0.010 -0.097 -0.083 0.010 0.102 0.135 0.146 0.166 0.191 0.081 -0.127 -0.215 -0.097 -0.038 0.020 0.078 -0.059 -0.413 -0.459 -0.504 -0.529 -0.554 -0.580 -0.561 -0.623 -0.568 -0.495 -0.423 -0.351 -0.278 -0.178 -0.076 0.027 0.129 0.231 0.334 0.436 0.477 0.386 0.263 0.141 0.019 -0.104 -0.226 -0.348 -0.470 -0.516 -0.385 -0.182 0.022 0.226 0.310 0.297 0.236 0.175 0.114 0.053 0.057 0.105 0.153 0.185 0.141 -0.050 -0.241 -0.288 -0.245 -0.239 -0.232 -0.225 -0.218 -0.211 -0.204 -0.197 -0.190 -0.183 -0.177 -0.170 -0.163 -0.156 -0.149 -0.142 -0.135 -0.128 -0.121 -0.115 -0.108 -0.101 -0.094 -0.087 -0.080 -0.073 -0.066 -0.059 -0.053 -0.046 -0.039 -0.035 -0.036 -0.037 -0.039 -0.040 -0.041 -0.042 -0.044 -0.045 -0.046 -0.048 -0.049 -0.050 -0.051 -0.053 -0.054 -0.055 -0.057 -0.058 -0.059 -0.055 -0.050 -0.044 -0.039 -0.033 -0.028 -0.022 -0.021 -0.034 -0.043 -0.049 -0.056 -0.063 -0.069 -0.076 -0.034 -0.000 -0.021 -0.041 -0.059 -0.077 -0.094 -0.116 -0.138 -0.138 -0.069 -0.033 0.003 0.010 0.010 0.010 -0.079 -0.135 -0.128 -0.121 -0.114 -0.107 -0.100 -0.094 -0.090 -0.086 -0.082 -0.078 -0.076 -0.073 -0.071 -0.068 -0.066 -0.064 -0.061 -0.059 -0.058 -0.058 -0.058 -0.057 -0.057 -0.056 -0.056 -0.055 -0.055 -0.054 -0.054 -0.053 -0.053 -0.052 -0.052 -0.051 -0.051 -0.050 -0.050 -0.050 -0.049 -0.049 -0.048 -0.048 -0.047 -0.047 -0.046 -0.046 -0.045 -0.045 -0.044 -0.044 -0.043 -0.043 -0.043 -0.042 -0.042 -0.041 -0.041 -0.040 -0.040 -0.039 -0.038 -0.038 -0.037 -0.037 -0.036 -0.035 -0.035 -0.034 -0.034 -0.033 -0.033 -0.032 -0.032 -0.031 -0.031 -0.030 -0.030 -0.029 -0.029 -0.028 -0.028 -0.027 -0.027 -0.027 -0.026 -0.026 -0.025 -0.025 -0.024
0.135 0.125 0.116 0.106 0.096 0.086 0.077 0.067 0.057 0.047 0.037 0.047 0.067 0.104 0.148 0.192 0.235 0.279 0.323 0.367 0.406 0.350 0.295 0.239 0.184 0.128 0.079 0.096 0.112 0.129 0.146 0.162 0.179 0.196 0.212 0.229 0.246 0.262 0.279 0.282 0.282 0.283 0.283 0.284 0.284 0.285 0.285 0.286 0.286 0.287 0.287 0.287 0.288 0.288 0.289 0.289 0.290 0.290 0.291 0.291 0.292 0.292 0.293 0.293 0.294 0.294 0.295 0.295 0.295 0.296 0.296 0.297 0.297 0.298 0.298 0.257 0.209 0.161 0.113 0.065 0.017 -0.019 0.084 0.188 0.189 0.190 0.190 0.191 0.191 0.192 0.193 0.193 0.194 0.195 0.195 0.196 0.196 0.197 0.198 0.198 0.199 0.200 0.200 0.201 0.201 0.202 0.203 0.203 0.204 0.205 0.205 0.206 0.206 0.207 0.208 0.208 0.209 0.210 0.210 0.211 0.211 0.212 0.213 0.168 0.120 0.072 0.023 -0.026 -0.090 -0.154 -0.219 -0.310 -0.401 -0.493 -0.584 -0.599 -0.598 -0.597 -0.597 -0.596 -0.596 -0.595 -0.594 -0.594 -0.593 -0.592 -0.592 -0.591 -0.591 -0.590 -0.589 -0.589 -0.588 -0.587 -0.587 -0.586 -0.586 -0.585 -0.584 -0.584 -0.583 -0.582 -0.582 -0.581 -0.581 -0.580 -0.579 -0.579 -0.578 -0.577 -0.577 -0.576 -0.576 -0.575 -0.574 -0.574 -0.520 -0.434 -0.349 -0.264 -0.182 -0.171 -0.160 -0.148 -0.137 -0.126 -0.114 -0.103 -0.092 -0.080 -0.069 -0.058 -0.047 -0.035 -0.024 -0.013 -0.001 0.010 0.021 0.033 0.044 0.055 0.067 0.078 0.089 0.100 0.114 0.129 0.145 0.160 0.180 0.209 0.135 0.062 -0.032 -0.073 0.020 0.112 0.204 0.297 0.339 0.364 0.389 0.227 0.019 -0.206 -0.195 -0.136 -0.078 -0.020 0.039 -0.352 -0.398 -0.443 -0.479 -0.505 -0.505 -0.446 -0.503 -0.586 -0.609 -0.572 -0.500 -0.427 -0.333 -0.231 -0.128 -0.026 0.077 0.179 0.281 0.392 0.398 0.330 0.244 0.121 -0.001 -0.123 -0.245 -0.368 -0.490 -0.484 -0.286 -0.082 0.058 0.194 0.152 0.091 0.029 -0.032 -0.001 0.047 0.095 0.143 0.167 0.139 -0.022 -0.213 -0.209 -0.194 -0.187 -0.180 -0.173 -0.166 -0.159 -0.152 -0.145 -0.139 -0.132 -0.125 -0.118 -0.111 -0.104 -0.097 -0.090 -0.084 -0.077 -0.070 -0.063 -0.056 -0.049 -0.042 -0.035 -0.028 -0.025 -0.026 -0.027 -0.029 -0.030 -0.031 -0.032 -0.034 -0.035 -0.036 -0.038 -0.039 -0.040 -0.041 -0.043 -0.044 -0.045 -0.047 -0.048 -0.049 -0.050 -0.052 -0.053 -0.054 -0.056 -0.057 -0.056 -0.051 -0.045 -0.040 -0.034 -0.029 -0.032 -0.048 -0.060 -0.072 -0.082 -0.089 -0.095 -0.102 -0.074 -0.033 0.006 -0.015 -0.035 -0.056 -0.074 -0.091 -0.110 -0.132 -0.155 -0.078 -0.026 0.010 0.019 0.019 -0.012 -0.114 -0.130 -0.123 -0.116 -0.109 -0.102 -0.097 -0.093 -0.089 -0.085 -0.081 -0.079 -0.076 -0.074 -0.071 -0.069 -0.066 -0.064 -0.062 -0.059 -0.059 -0.058 -0.058 -0.058 -0.057 -0.057 -0.056 -0.056 -0.055 -0.055 -0.054 -0.054 -0.053 -0.053 -0.052 -0.052 -0.051 -0.051 -0.050 -0.050 -0.050 -0.049 -0.049 -0.048 -0.048 -0.047 -0.047 -0.046 -0.046 -0.045 -0.045 -0.044 -0.044 -0.043 -0.043 -0.043 -0.042 -0.042 -0.041 -0.041 -0.040 -0.039 -0.039 -0.038 -0.037 -0.037 -0.036 -0.036 -0.035 -0.034 -0.034 -0.033 -0.033 -0.032 -0.032 -0.032 -0.031 -0.031 -0.030 -0.030 -0.029 -0.029 -0.028 -0.028 -0.027 -0.027 -0.026 -0.026 -0.025 -0.025 -0.025
0.139 0.129 0.120 0.110 0.100 0.090 0.081 0.071 0.061 0.051 0.044 0.064 0.090 0.134 0.178 0.221 0.265 0.309 0.353 0.396 0.418 0.362 0.307 0.251 0.196 0.140 0.120 0.137 0.153 0.170 0.186 0.203 0.220 0.236 0.253 0.270 0.286 0.303 0.320 0.336 0.336 0.337 0.337 0.338 0.338 0.339 0.339 0.340 0.340 0.341 0.341 0.341 0.342 0.342 0.343 0.343 0.344 0.344 0.345 0.345 0.346 0.346 0.347 0.347 0.348 0.348 0.349 0.349 0.349 0.350 0.350 0.351 0.351 0.352 0.331 0.283 0.235 0.186 0.138 0.090 0.042 -0.006 0.096 0.199 0.232 0.232 0.233 0.233 0.234 0.235 0.235 0.236 0.237 0.237 0.238 0.238 0.239 0.240 0.240 0.241 0.242 0.242 0.243 0.243 0.244 0.245 0.245 0.246 0.247 0.247 0.248 0.248 0.249 0.250 0.250 0.251 0.252 0.252 0.253 0.253 0.254 0.255 0.221 0.172 0.124 0.076 0.028 -0.027 -0.090 -0.154 -0.219 -0.310 -0.402 -0.493 -0.584 -0.638 -0.637 -0.636 -0.636 -0.635 -0.634 -0.634 -0.633 -0.633 -0.632 -0.631 -0.631 -0.630 -0.629 -0.629 -0.628 -0.628 -0.627 -0.626 -0.626 -0.625 -0.624 -0.624 -0.623 -0.623 -0.622 -0.621 -0.621 -0.620 -0.619 -0.619 -0.618 -0.618 -0.617 -0.616 -0.616 -0.615 -0.614 -0.614 -0.613 -0.605 -0.520 -0.435 -0.349 -0.264 -0.183 -0.171 -0.160 -0.149 -0.137 -0.126 -0.115 -0.103 -0.092 -0.081 -0.069 -0.058 -0.047 -0.036 -0.024 -0.013 -0.002 0.010 0.021 0.032 0.044 0.055 0.066 0.078 0.089 0.100 0.111 0.123 0.134 0.149 0.165 0.163 0.089 0.016 -0.063 0.029 0.122 0.191 0.250 0.310 0.369 0.430 0.491 0.243 -0.028 -0.133 -0.147 -0.183 -0.176 -0.118 -0.059 -0.291 -0.336 -0.382 -0.427 -0.450 -0.391 -0.332 -0.365 -0.448 -0.530 -0.572 -0.596 -0.576 -0.488 -0.385 -0.278 -0.145 -0.013 0.120 0.253 0.386 0.265 -0.049 -0.117 -0.185 -0.253 -0.321 -0.389 -0.457 -0.525 -0.529 -0.470 -0.334 -0.197 -0.060 0.006 -0.055 -0.108 -0.060 -0.012 0.037 0.085 0.133 0.149 0.122 0.006 -0.185 -0.149 -0.142 -0.135 -0.128 -0.121 -0.114 -0.108 -0.101 -0.094 -0.087 -0.080 -0.073 -0.066 -0.059 -0.052 -0.046 -0.039 -0.032 -0.025 -0.018 -0.015 -0.016 -0.017 -0.019 -0.020 -0.021 -0.023 -0.024 -0.025 -0.026 -0.028 -0.029 -0.030 -0.031 -0.033 -0.034 -0.035 -0.037 -0.038 -0.039 -0.040 -0.042 -0.043 -0.044 -0.046 -0.047 -0.048 -0.049 -0.051 -0.052 -0.053 -0.055 -0.056 -0.052 -0.047 -0.041 -0.036 -0.044 -0.060 -0.074 -0.086 -0.098 -0.109 -0.121 -0.128 -0.114 -0.073 -0.032 0.009 -0.009 -0.029 -0.050 -0.070 -0.088 -0.106 -0.126 -0.149 -0.095 -0.019 0.016 0.029 0.029 -0.061 -0.132 -0.125 -0.118 -0.111 -0.104 -0.100 -0.096 -0.092 -0.088 -0.084 -0.081 -0.079 -0.077 -0.074 -0.072 -0.069 -0.067 -0.065 -0.062 -0.060 -0.059 -0.059 -0.058 -0.058 -0.058 -0.057 -0.057 -0.056 -0.056 -0.055 -0.055 -0.054 -0.054 -0.053 -0.053 -0.052 -0.052 -0.051 -0.051 -0.050 -0.050 -0.050 -0.049 -0.049 -0.048 -0.048 -0.047 -0.047 -0.046 -0.046 -0.045 -0.045 -0.044 -0.044 -0.043 -0.043 -0.043 -0.042 -0.042 -0.041 -0.040 -0.040 -0.039 -0.038 -0.038 -0.037 -0.037 -0.036 -0.035 -0.035 -0.034 -0.034 -0.033 -0.033 -0.032 -0.032 -0.031 -0.031 -0.030 -0.030 -0.030 -0.029 -0.029 -0.028 -0.028 -0.027 -0.027 -0.026 -0.026 -0.025 -0.025
0.143 0.134 0.124 0.114 0.104 0.094 0.085 0.075 0.065 0.055 0.062 0.082 0.120 0.164 0.207 0.251 0.295 0.339 0.382 0.426 0.430 0.374 0.318 0.263 0.207 0.152 0.161 0.177 0.194 0.211 0.227 0.244 0.261 0.277 0.294 0.310 0.327 0.344 0.360 0.377 0.390 0.391 0.391 0.392 0.392 0.393 0.393 0.394 0.394 0.395 0.395 0.395 0.396 0.396 0.397 0.397 0.398 0.398 0.399 0.399 0.400 0.400 0.401 0.401 0.402 0.402 0.402 0.403 0.403 0.404 0.404 0.405 0.405 0.404 0.356 0.308 0.260 0.212 0.164 0.116 0.068 0.020 0.107 0.210 0.274 0.275 0.275 0.276 0.277 0.277 0.278 0.279 0.279 0.280 0.280 0.281 0.282 0.282 0.283 0.284 0.284 0.285 0.285 0.286 0.287 0.287 0.288 0.289 0.289 0.290 0.290 0.291 0.292 0.292 0.293 0.294 0.294 0.295 0.295 0.296 0.297 0.273 0.225 0.177 0.129 0.080 0.032 -0.027 -0.091 -0.154 -0.219 -0.311 -0.402 -0.493 -0.585 -0.676 -0.676 -0.675 -0.675 -0.674 -0.673 -0.673 -0.672 -0.671 -0.671 -0.670 -0.670 -0.669 -0.668 -0.668 -0.667 -0.666 -0.666 -0.665 -0.665 -0.664 -0.663 -0.663 -0.662 -0.661 -0.661 -0.660 -0.660 -0.659 -0.658 -0.658 -0.657 -0.656 -0.656 -0.655 -0.655 -0.654 -0.653 -0.653 -0.652 -0.605 -0.520 -0.435 -0.350 -0.264 -0.183 -0.172 -0.160 -0.149 -0.138 -0.126 -0.115 -0.104 -0.092 -0.081 -0.070 -0.058 -0.047 -0.036 -0.025 -0.013 -0.002 0.009 0.021 0.032 0.043 0.055 0.066 0.077 0.089 0.100 0.111 0.122 0.134 0.145 0.156 0.136 0.083 0.030 -0.024 -0.006 0.053 0.112 0.172 0.231 0.290 0.351 0.412 0.187 -0.085 -0.060 -0.056 -0.092 -0.128 -0.165 -0.157 -0.230 -0.275 -0.308 -0.323 -0.335 -0.276 -0.217 -0.227 -0.310 -0.392 -0.474 -0.535 -0.559 -0.547 -0.417 -0.285 -0.152 -0.019 0.114 0.247 0.379 0.127 -0.179 -0.496 -0.529 -0.181 -0.066 -0.338 -0.381 -0.424 -0.450 -0.453 -0.400 -0.343 -0.287 -0.178 -0.167 -0.118 -0.070 -0.022 0.027 0.075 0.123 0.132 0.104 0.034 -0.131 -0.097 -0.090 -0.083 -0.077 -0.070 -0.063 -0.056 -0.049 -0.042 -0.035 -0.028 -0.021 -0.015 -0.008 -0.005 -0.006 -0.007 -0.009 -0.010 -0.011 -0.013 -0.014 -0.015 -0.016 -0.018 -0.019 -0.020 -0.022 -0.023 -0.024 -0.025 -0.027 -0.028 -0.029 -0.030 -0.032 -0.033 -0.034 -0.036 -0.037 -0.038 -0.039 -0.041 -0.042 -0.043 -0.045 -0.046 -0.047 -0.048 -0.050 -0.051 -0.052 -0.054 -0.053 -0.048 -0.042 -0.055 -0.071 -0.087 -0.100 -0.112 -0.124 -0.135 -0.147 -0.147 -0.113 -0.072 -0.031 0.011 -0.003 -0.023 -0.044 -0.064 -0.085 -0.103 -0.121 -0.143 -0.112 -0.035 0.023 0.039 -0.009 -0.090 -0.127 -0.120 -0.113 -0.107 -0.103 -0.099 -0.095 -0.091 -0.087 -0.084 -0.082 -0.079 -0.077 -0.075 -0.072 -0.070 -0.067 -0.065 -0.063 -0.060 -0.060 -0.059 -0.059 -0.058 -0.058 -0.058 -0.057 -0.057 -0.056 -0.056 -0.055 -0.055 -0.054 -0.054 -0.053 -0.053 -0.052 -0.052 -0.051 -0.051 -0.050 -0.050 -0.050 -0.049 -0.049 -0.048 -0.048 -0.047 -0.047 -0.046 -0.046 -0.045 -0.045 -0.044 -0.044 -0.043 -0.043 -0.042 -0.042 -0.041 -0.041 -0.040 -0.039 -0.039 -0.038 -0.037 -0.037 -0.036 -0.036 -0.035 -0.035 -0.034 -0.034 -0.033 -0.033 -0.032 -0.032 -0.031 -0.031 -0.030 -0.030 -0.029 -0.029 -0.028 -0.028 -0.027 -0.027 -0.027 -0.026 -0.026 -0.025
0.147 0.138 0.128 0.118 0.108 0.098 0.089 0.079 0.069 0.059 0.080 0.106 0.150 0.193 0.237 0.281 0.325 0.368 0.412 0.456 0.441 0.386 0.330 0.275 0.219 0.185 0.201 0.218 0.235 0.251 0.268 0.285 0.301 0.318 0.335 0.351 0.368 0.385 0.401 0.418 0.434 0.445 0.445 0.446 0.446 0.447 0.447 0.448 0.448 0.449 0.449 0.449 0.450 0.450 0.451 0.451 0.452 0.452 0.453 0.453 0.454 0.454 0.455 0.455 0.456 0.456 0.456 0.457 0.457 0.458 0.458 0.459 0.459 0.430 0.382 0.334 0.286 0.238 0.190 0.142 0.094 0.046 0.118 0.222 0.317 0.317 0.318 0.319 0.319 0.320 0.320 0.321 0.322 0.322 0.323 0.324 0.324 0.325 0.325 0.326 0.327 0.327 0.328 0.329 0.329 0.330 0.330 0.331 0.332 0.332 0.333 0.334 0.334 0.335 0.335 0.336 0.337 0.337 0.338 0.339 0.326 0.278 0.229 0.181 0.133 0.085 0.036 -0.027 -0.091 -0.155 -0.220 -0.311 -0.402 -0.494 -0.585 -0.676 -0.715 -0.714 -0.713 -0.713 -0.712 -0.712 -0.711 -0.710 -0.710 -0.709 -0.708 -0.708 -0.707 -0.707 -0.706 -0.705 -0.705 -0.704 -0.703 -0.703 -0.702 -0.702 -0.701 -0.700 -0.700 -0.699 -0.698 -0.698 -0.697 -0.697 -0.696 -0.695 -0.695 -0.694 -0.693 -0.693 -0.692 -0.692 -0.691 -0.606 -0.520 -0.435 -0.350 -0.265 -0.183 -0.172 -0.161 -0.149 -0.138 -0.127 -0.115 -0.104 -0.093 -0.081 -0.070 -0.059 -0.047 -0.036 -0.025 -0.014 -0.002 0.009 0.020 0.032 0.043 0.054 0.066 0.077 0.088 0.100 0.111 0.122 0.133 0.145 0.156 0.167 0.178 0.125 0.072 0.019 -0.004 0.034 0.093 0.152 0.212 0.271 0.332 0.131 -0.059 0.013 0.036 -0.001 -0.037 -0.074 -0.110 -0.133 -0.099 -0.092 -0.113 -0.135 -0.156 -0.102 -0.089 -0.171 -0.254 -0.336 -0.362 -0.418 -0.545 -0.416 -0.291 -0.158 -0.025 0.107 0.240 0.254 -0.011 -0.301 -0.397 -0.141 -0.189 -0.233 -0.276 -0.319 -0.362 -0.368 -0.371 -0.364 -0.307 -0.251 -0.194 -0.161 -0.128 -0.080 -0.032 0.016 0.065 0.113 0.114 0.087 0.059 -0.052 -0.045 -0.039 -0.032 -0.025 -0.018 -0.011 -0.004 0.003 0.005 0.004 0.003 0.001 -0.000 -0.001 -0.003 -0.004 -0.005 -0.006 -0.008 -0.009 -0.010 -0.012 -0.013 -0.014 -0.015 -0.017 -0.018 -0.019 -0.021 -0.022 -0.023 -0.024 -0.026 -0.027 -0.028 -0.029 -0.031 -0.032 -0.033 -0.035 -0.036 -0.037 -0.038 -0.040 -0.041 -0.042 -0.044 -0.045 -0.046 -0.047 -0.049 -0.050 -0.051 -0.053 -0.050 -0.066 -0.082 -0.098 -0.114 -0.126 -0.138 -0.149 -0.154 -0.135 -0.125 -0.112 -0.071 -0.029 0.012 0.003 -0.017 -0.038 -0.058 -0.079 -0.099 -0.117 -0.137 -0.128 -0.051 0.026 0.048 -0.037 -0.118 -0.122 -0.115 -0.110 -0.106 -0.102 -0.098 -0.094 -0.090 -0.087 -0.085 -0.082 -0.080 -0.078 -0.075 -0.073 -0.070 -0.068 -0.065 -0.063 -0.061 -0.060 -0.060 -0.059 -0.059 -0.058 -0.058 -0.058 -0.057 -0.057 -0.056 -0.056 -0.055 -0.055 -0.054 -0.054 -0.053 -0.053 -0.052 -0.052 -0.051 -0.051 -0.050 -0.050 -0.050 -0.049 -0.049 -0.048 -0.048 -0.047 -0.047 -0.046 -0.046 -0.045 -0.045 -0.044 -0.044 -0.043 -0.043 -0.042 -0.042 -0.041 -0.040 -0.040 -0.039 -0.038 -0.038 -0.037 -0.037 -0.036 -0.035 -0.035 -0.034 -0.034 -0.033 -0.033 -0.032 -0.032 -0.032 -0.031 -0.031 -0.030 -0.030 -0.029 -0.029 -0.028 -0.028 -0.027 -0.027 -0.026 -0.026 -0.025
