-0.027 -0.026933 -0.0276 -0.0291 -0.030267 -0.031 -0.031567 -0.031267 -0.0318 -0.0322 -0.032867 -0.033533 -0.034 -0.033067 -0.0324 -0.031733 -0.030733 -0.03 -0.03 -0.030067 -0.0294 -0.028733 -0.028067 -0.0274 -0.027933 -0.029133 -0.0312 -0.032533 -0.033867 -0.034 -0.033067 -0.032 -0.0314 -0.0294 -0.027733 -0.0264 -0.026 -0.026267 -0.027 -0.027133 -0.025867 -0.0244 -0.023733 -0.023067 -0.0224 -0.022933 -0.024867 -0.0282 -0.0306 -0.032133 -0.0314 -0.030733 -0.0298 -0.0284 -0.027733 -0.027067 -0.027 -0.027267 -0.028 -0.028 -0.0284 -0.028267 -0.029 -0.028567 -0.027867 -0.0258 -0.023533 -0.020933 -0.0182 -0.015533 -0.012867 -0.0102 -0.0080667 -0.0068 -0.0048 -0.0028 -0.00086667 0.0018 0.0047333 0.008 0.0114 0.014467 0.0168 0.0188 0.0209 0.023733 0.027 0.031167 0.034333 0.0376 0.0412 0.0452 0.0504 0.056667 0.063867 0.078 0.1004 0.12193 0.1444 0.1773 0.20747 0.2282 0.24703 0.264 0.2782 0.28993 0.29867 0.3048 0.31053 0.31587 0.3218 0.3286 0.3366 0.3452 0.35513 0.3648 0.3748 0.3845 0.3954 0.406 0.41563 0.42293 0.4264 0.42627 0.4244 0.4204 0.41587 0.4098 0.4026 0.3934 0.38293 0.3724 0.36113 0.35093 0.343 0.34073 0.3394 0.3368 0.33947 0.34353 0.3438 0.34527 0.3354 0.3112 0.28007 0.28147 0.3082 0.3248 0.32747 0.3264 0.32533 0.324 0.3196 0.316 0.3112 0.3054 0.29827 0.2848 0.273 0.25667 0.24113 0.2246 0.21473 0.20307 0.1814 0.17167 0.16033 0.1554 0.14247 0.13013 0.1222 0.1156 0.094933 0.0822 0.0894 0.096067 0.096 0.084667 0.0672 0.0484 0.0436 0.036933 0.033 0.025333 0.020333 0.0174 0.017 0.017067 0.0164 0.013967 0.011467 0.0088 0.0068 0.0051333 0.0038 0.0036667 0.0046667 0.0048 0.0049667 0.0040667 0.0034 0.0037333 0.0027333 0.0008 -0.0012 -0.003 -0.0036 -0.0049333 -0.0062667 -0.0076 -0.0086667 -0.0093333 -0.0106 -0.011833 -0.012267 -0.013 -0.013667 -0.014333 -0.0156 -0.015833 -0.016 -0.0166 -0.01712 -0.018 -0.018 -0.018733 -0.018 -0.0174 -0.01808 -0.018067 -0.018 -0.017733 -0.0174 -0.018 -0.018 -0.018 -0.0186 -0.019933 -0.020933 -0.0216 -0.021833 -0.022067 -0.022 -0.0219 -0.0214 -0.022 -0.022933 -0.0242 -0.0262 -0.0278 -0.0298 -0.0318 -0.033367 -0.0352 -0.0372 -0.0382 -0.039867 -0.0406 -0.041 -0.041 -0.0416 -0.0421 -0.0432 -0.0446 -0.045267 -0.0462 -0.047 -0.0481 -0.049133 -0.0506 -0.052267 -0.053267 -0.0546 -0.056267 -0.056933 -0.0576 -0.058 -0.058 -0.057867 -0.058267 -0.058933 -0.0602 -0.0624 -0.06428 -0.065933 -0.067267 -0.067933 -0.068 -0.067733 -0.067067 -0.0664 -0.066 -0.066333 -0.067 -0.067167 -0.066933 -0.0676 -0.0676 -0.067933 -0.0692 -0.070967 -0.072467 -0.0732 -0.073467 -0.074467 -0.0764 -0.078267 -0.078867 -0.0796 -0.079933 -0.080667 -0.08 -0.080533 -0.081867 -0.0826 -0.082867 -0.083933 -0.0846 -0.084 -0.083667 -0.0824 -0.081733 -0.081067 -0.0804 -0.08 -0.08 -0.0806 -0.0811 -0.082 -0.0814 -0.0809 -0.080133 -0.0792 -0.0778 -0.0756 -0.0716 -0.067567 -0.0676 -0.0684 -0.06708 -0.0642 -0.0616 -0.0576 -0.054267 -0.0516 -0.048533 -0.046533 -0.0464 -0.044567 -0.043733 -0.0424 -0.0424 -0.0424 -0.0418 -0.041 -0.0408 -0.0422 -0.0426 -0.0428 -0.0436
-0.0263 -0.026267 -0.027567 -0.0292 -0.030933 -0.03188 -0.032 -0.031933 -0.032 -0.0324 -0.033067 -0.033733 -0.034 -0.033733 -0.032433 -0.0314 -0.030067 -0.029367 -0.0299 -0.030733 -0.0307 -0.0298 -0.028733 -0.028067 -0.028 -0.028467 -0.0305 -0.031633 -0.032767 -0.0333 -0.0327 -0.032 -0.030733 -0.0288 -0.027067 -0.026367 -0.0263 -0.026933 -0.027633 -0.0277 -0.026533 -0.025 -0.0246 -0.023733 -0.0244 -0.0247 -0.027533 -0.030233 -0.0323 -0.033467 -0.032133 -0.0311 -0.0298 -0.029067 -0.028367 -0.027267 -0.027 -0.0273 -0.028 -0.028633 -0.029 -0.028933 -0.029633 -0.0294 -0.028533 -0.0265 -0.0245 -0.022267 -0.01916 -0.0164 -0.013533 -0.0108 -0.0085 -0.0068 -0.0048 -0.0029 -0.0015333 0.00032 0.0029 0.006 0.0093667 0.012333 0.0141 0.0161 0.018433 0.020833 0.0243 0.027867 0.030833 0.0331 0.0365 0.0399 0.0445 0.051 0.058533 0.0762 0.0984 0.11927 0.14252 0.174 0.20413 0.2268 0.247 0.266 0.282 0.2943 0.30333 0.31003 0.31587 0.32137 0.3265 0.33297 0.3406 0.3492 0.3587 0.3681 0.3781 0.3875 0.3974 0.4062 0.4142 0.42027 0.4218 0.421 0.4184 0.4138 0.4085 0.4018 0.39067 0.3818 0.37227 0.36293 0.3527 0.34427 0.34327 0.3402 0.3374 0.33476 0.3393 0.34487 0.3404 0.3416 0.3294 0.30673 0.285 0.28213 0.30828 0.32443 0.32403 0.3217 0.32033 0.3207 0.3193 0.315 0.3092 0.29716 0.2901 0.2768 0.25067 0.2374 0.22047 0.21796 0.2184 0.21573 0.20373 0.19033 0.18493 0.1712 0.1528 0.13023 0.1213 0.11493 0.10313 0.09 0.089167 0.086167 0.084 0.0769 0.0632 0.053967 0.0442 0.040267 0.032167 0.0242 0.019667 0.018 0.0177 0.017733 0.0158 0.0132 0.010133 0.011267 0.009 0.0064667 0.00376 0.0042 0.0059333 0.00632 0.0071 0.0047333 0.0026 0.0026 0.0020667 0.0001 -0.0016 -0.003 -0.0042 -0.0051 -0.0064667 -0.0076 -0.009 -0.0097333 -0.0106 -0.0119 -0.012933 -0.013633 -0.0143 -0.014967 -0.015633 -0.016 -0.016 -0.016633 -0.0174 -0.018 -0.018 -0.0183 -0.018 -0.018 -0.0181 -0.018733 -0.01852 -0.0187 -0.0187 -0.0187 -0.0184 -0.018 -0.019267 -0.020567 -0.021433 -0.0223 -0.0227 -0.022733 -0.02288 -0.0226 -0.022 -0.02252 -0.0231 -0.0242 -0.025567 -0.026633 -0.0285 -0.0305 -0.032267 -0.0345 -0.0365 -0.037733 -0.039467 -0.0406 -0.0411 -0.0417 -0.0417 -0.0423 -0.0432 -0.04416 -0.0451 -0.0462 -0.04664 -0.0474 -0.048467 -0.049867 -0.0517 -0.053233 -0.054567 -0.0556 -0.056267 -0.056933 -0.0575 -0.0573 -0.05728 -0.0576 -0.058267 -0.059533 -0.0615 -0.063433 -0.06476 -0.066267 -0.067033 -0.0674 -0.068 -0.067733 -0.067067 -0.0667 -0.066967 -0.067 -0.0669 -0.066267 -0.065667 -0.064933 -0.064233 -0.0651 -0.066 -0.067967 -0.0691 -0.0699 -0.071833 -0.07344 -0.0761 -0.077533 -0.07916 -0.0799 -0.079333 -0.07928 -0.08 -0.080533 -0.08148 -0.0815 -0.083267 -0.083933 -0.084 -0.083267 -0.083 -0.082 -0.081967 -0.0811 -0.0809 -0.0807 -0.081333 -0.0817 -0.082 -0.082 -0.0817 -0.081467 -0.080133 -0.0781 -0.0756 -0.0716 -0.0694 -0.0696 -0.0697 -0.0685 -0.0662 -0.06248 -0.058433 -0.0549 -0.0521 -0.049 -0.048467 -0.047133 -0.045367 -0.044233 -0.0443 -0.0443 -0.0437 -0.0404 -0.0389 -0.0388 -0.03976 -0.0406 -0.0408 -0.041533
-0.02632 -0.0266 -0.027933 -0.029367 -0.0314 -0.0326 -0.03212 -0.0316 -0.0322 -0.032333 -0.033667 -0.0344 -0.0343 -0.0342 -0.033 -0.0308 -0.029533 -0.029267 -0.029933 -0.0306 -0.0312 -0.0311 -0.0298 -0.028533 -0.027833 -0.0278 -0.029 -0.030867 -0.031933 -0.033 -0.0329 -0.032267 -0.0308 -0.028767 -0.027333 -0.0268 -0.026933 -0.0276 -0.028 -0.027833 -0.0266 -0.0256 -0.025 -0.0246 -0.0258 -0.02704 -0.0292 -0.0314 -0.033333 -0.034 -0.033467 -0.031967 -0.0306 -0.029733 -0.0289 -0.027933 -0.027 -0.027133 -0.027733 -0.028467 -0.029 -0.029 -0.029 -0.0289 -0.0282 -0.0268 -0.0248 -0.0228 -0.0202 -0.01724 -0.0142 -0.0114 -0.00912 -0.0072 -0.005 -0.00312 -0.0018 -0.0004 0.00112 0.004 0.0068667 0.0096333 0.011667 0.0138 0.015733 0.0186 0.0206 0.0245 0.026667 0.029867 0.032733 0.035867 0.040667 0.0464 0.0552 0.0722 0.09644 0.1188 0.14 0.17156 0.2032 0.22567 0.24783 0.267 0.2832 0.29663 0.3056 0.31333 0.3201 0.3262 0.33127 0.33767 0.34487 0.35367 0.36277 0.37173 0.38133 0.39037 0.39947 0.4072 0.4131 0.4172 0.41673 0.41547 0.412 0.4066 0.3998 0.39 0.3792 0.3682 0.3602 0.35353 0.3456 0.341 0.3398 0.3392 0.3312 0.3276 0.33084 0.3368 0.334 0.33056 0.3218 0.2994 0.27727 0.2858 0.3112 0.3204 0.3212 0.31787 0.31497 0.3146 0.31513 0.3098 0.2974 0.2866 0.27572 0.2622 0.2408 0.22393 0.2112 0.2084 0.21836 0.2254 0.21587 0.2049 0.19673 0.18513 0.16503 0.14 0.1232 0.11467 0.10793 0.096867 0.089867 0.082533 0.075867 0.06732 0.0566 0.0482 0.042733 0.0348 0.028933 0.0241 0.021 0.0196 0.021667 0.019833 0.016533 0.013 0.0124 0.0124 0.011433 0.0074 0.0036 0.00248 0.004 0.0046 0.0052 0.0034 0.0016 0.00092 0.0008 -0.00073333 -0.0019333 -0.0026 -0.0037333 -0.0050333 -0.0061333 -0.0076 -0.0089333 -0.0090667 -0.010133 -0.0112 -0.0126 -0.013533 -0.014867 -0.0156 -0.016 -0.016 -0.016 -0.0164 -0.0168 -0.0174 -0.018 -0.018 -0.018 -0.018667 -0.019 -0.019 -0.019 -0.019 -0.019067 -0.019467 -0.019167 -0.0198 -0.020467 -0.021267 -0.022267 -0.023067 -0.023167 -0.0238 -0.024 -0.02376 -0.023 -0.023 -0.02332 -0.024 -0.024867 -0.026033 -0.027133 -0.029267 -0.030967 -0.033 -0.035267 -0.037033 -0.038933 -0.040133 -0.041067 -0.042067 -0.042467 -0.043 -0.0436 -0.044 -0.04424 -0.0452 -0.046 -0.04656 -0.0478 -0.0496 -0.051033 -0.0524 -0.053733 -0.055033 -0.0564 -0.057 -0.057 -0.057 -0.057 -0.057133 -0.058 -0.059 -0.061033 -0.0624 -0.063733 -0.065067 -0.066867 -0.067533 -0.06832 -0.0684 -0.0682 -0.0682 -0.0682 -0.0676 -0.067 -0.0664 -0.064733 -0.061467 -0.059133 -0.0566 -0.058667 -0.061067 -0.062933 -0.066067 -0.069 -0.0712 -0.07368 -0.0762 -0.0778 -0.0786 -0.078 -0.0782 -0.07912 -0.08 -0.0806 -0.08164 -0.083 -0.0836 -0.084 -0.083933 -0.083 -0.082167 -0.0822 -0.082333 -0.082067 -0.082 -0.082 -0.0821 -0.0828 -0.083 -0.083 -0.082467 -0.081 -0.0785 -0.0752 -0.073 -0.071333 -0.072 -0.071667 -0.070067 -0.0674 -0.0634 -0.059 -0.054133 -0.052267 -0.049467 -0.0494 -0.048 -0.046067 -0.045067 -0.044133 -0.044967 -0.0416 -0.0384 -0.03608 -0.0354 -0.0366 -0.03784 -0.0384 -0.040067
-0.025933 -0.027 -0.0282 -0.030033 -0.032133 -0.033 -0.032067 -0.030933 -0.0318 -0.0332 -0.034733 -0.035867 -0.0363 -0.035133 -0.0338 -0.0308 -0.02916 -0.028867 -0.029267 -0.0302 -0.0316 -0.03176 -0.030733 -0.0288 -0.027167 -0.026933 -0.0282 -0.029533 -0.030933 -0.0322 -0.0329 -0.03208 -0.030533 -0.0281 -0.0268 -0.025867 -0.026267 -0.026867 -0.0276 -0.027167 -0.027 -0.0264 -0.025733 -0.025333 -0.0266 -0.0282 -0.030533 -0.0326 -0.034667 -0.035 -0.0344 -0.032633 -0.031 -0.0304 -0.0289 -0.027733 -0.027 -0.0278 -0.02792 -0.0286 -0.029 -0.029 -0.029 -0.0289 -0.0278 -0.0264 -0.0248 -0.0228 -0.0202 -0.017533 -0.0148 -0.0122 -0.0102 -0.0078667 -0.0058 -0.0038 -0.0021333 -0.0008 0.00013333 0.0018 0.0038 0.0069667 0.0088 0.0114 0.013067 0.015467 0.0174 0.0205 0.023667 0.0264 0.030067 0.033067 0.0376 0.0444 0.0534 0.0706 0.0958 0.11927 0.1396 0.1712 0.20287 0.2262 0.24717 0.26593 0.2816 0.29397 0.30547 0.3144 0.3221 0.32893 0.335 0.34233 0.34993 0.3586 0.36743 0.37593 0.3852 0.3937 0.40112 0.40747 0.41168 0.41447 0.4134 0.41013 0.40473 0.3982 0.3898 0.377 0.3664 0.3583 0.35175 0.3466 0.3456 0.3428 0.341 0.3392 0.33053 0.3248 0.32507 0.3276 0.3256 0.32307 0.31573 0.2974 0.27993 0.291 0.3148 0.3208 0.3198 0.316 0.31563 0.3148 0.313 0.3018 0.28547 0.2742 0.26567 0.25033 0.2348 0.23527 0.22167 0.2172 0.22573 0.22807 0.2192 0.2089 0.2006 0.1922 0.17637 0.1542 0.1332 0.11933 0.10667 0.0994 0.084533 0.071533 0.061 0.054333 0.049333 0.043 0.040067 0.033667 0.0284 0.0301 0.030267 0.0292 0.027167 0.0212 0.017067 0.013 0.013333 0.014 0.010767 0.0062667 0.0028 0.0016 0.0016 0.0022 0.0023333 0.0014 0 0 0 -0.0006 -0.0012667 -0.0022 -0.0036 -0.0043667 -0.0058667 -0.0072 -0.0082667 -0.0087333 -0.0092 -0.0112 -0.0122 -0.0122 -0.013133 -0.0148 -0.0156 -0.016 -0.016 -0.016 -0.016 -0.0162 -0.0176 -0.018 -0.018 -0.0192 -0.019 -0.019 -0.019 -0.019 -0.019 -0.0196 -0.019833 -0.019933 -0.0206 -0.021933 -0.023267 -0.024 -0.023833 -0.024333 -0.0244 -0.024 -0.024 -0.0234 -0.023667 -0.024 -0.0246 -0.025367 -0.026867 -0.0282 -0.029633 -0.031867 -0.0338 -0.036367 -0.0382 -0.0396 -0.040933 -0.041933 -0.0426 -0.043 -0.043 -0.0436 -0.044 -0.044 -0.0452 -0.046267 -0.047267 -0.0492 -0.050367 -0.051867 -0.0532 -0.054367 -0.055933 -0.0568 -0.057 -0.057 -0.057 -0.057267 -0.057933 -0.0586 -0.060367 -0.061933 -0.0632 -0.064933 -0.066267 -0.0676 -0.068267 -0.068933 -0.069 -0.0694 -0.069067 -0.0684 -0.067733 -0.066733 -0.0642 -0.056133 -0.050133 -0.047 -0.045333 -0.048933 -0.0536 -0.058733 -0.064067 -0.0676 -0.071733 -0.0748 -0.0762 -0.0766 -0.0772 -0.0786 -0.079667 -0.080267 -0.081 -0.081933 -0.083267 -0.084 -0.084 -0.083667 -0.083 -0.082833 -0.083 -0.083 -0.082733 -0.082067 -0.082 -0.0821 -0.082933 -0.083 -0.083 -0.083 -0.081133 -0.07772 -0.0748 -0.0734 -0.072667 -0.073333 -0.0734 -0.071933 -0.069067 -0.065 -0.061133 -0.056133 -0.0532 -0.052133 -0.0508 -0.0488 -0.046733 -0.045733 -0.0444 -0.041633 -0.0378 -0.0344 -0.031867 -0.030867 -0.0314 -0.033 -0.035333 -0.0374
-0.0261 -0.027 -0.0282 -0.0301 -0.031467 -0.0316 -0.0306 -0.030267 -0.031533 -0.0334 -0.036467 -0.03716 -0.0378 -0.036467 -0.033867 -0.0313 -0.029567 -0.02828 -0.0287 -0.0302 -0.031533 -0.0312 -0.030067 -0.027467 -0.0261 -0.026267 -0.026933 -0.0287 -0.030267 -0.031533 -0.0316 -0.0311 -0.02912 -0.027 -0.026233 -0.02552 -0.0251 -0.025533 -0.026867 -0.0271 -0.0277 -0.0273 -0.0267 -0.026667 -0.026667 -0.0282 -0.030233 -0.0326 -0.035 -0.035 -0.0344 -0.0328 -0.031 -0.029067 -0.028 -0.027067 -0.0276 -0.0281 -0.0287 -0.02872 -0.029 -0.029 -0.029 -0.0289 -0.0278 -0.0264 -0.0248 -0.0228 -0.0204 -0.0177 -0.0148 -0.0128 -0.0108 -0.0085333 -0.00632 -0.0046 -0.0034667 -0.0027333 -0.0018333 -0.0002 0.0021 0.0041 0.0061 0.0081 0.0103 0.012133 0.014133 0.017067 0.020567 0.0243 0.0284 0.031733 0.0376 0.044 0.054433 0.0736 0.0986 0.11993 0.13967 0.17247 0.20057 0.2247 0.2433 0.26127 0.27613 0.2896 0.30213 0.3136 0.32267 0.33063 0.3389 0.3467 0.35527 0.364 0.37237 0.38017 0.3879 0.3961 0.403 0.40813 0.41 0.41113 0.4074 0.4023 0.39607 0.38687 0.3779 0.365 0.3552 0.3488 0.34725 0.3497 0.3482 0.3468 0.3442 0.34173 0.33113 0.3266 0.3259 0.3296 0.33147 0.32967 0.31023 0.2961 0.2884 0.299 0.3178 0.3239 0.32277 0.3212 0.3188 0.31187 0.2998 0.28287 0.26937 0.2601 0.25717 0.24937 0.2459 0.2425 0.23233 0.22212 0.22633 0.22513 0.2205 0.2138 0.2066 0.20093 0.1896 0.1702 0.13816 0.12003 0.10563 0.0899 0.077767 0.060833 0.0516 0.050667 0.047767 0.0455 0.0403 0.034333 0.03296 0.036333 0.037667 0.0346 0.029 0.023433 0.01684 0.0144 0.014667 0.014267 0.010767 0.0058667 0.0028 0.0009 0.0003 0.001 0.0009 -0.0006 0.00052 0.0007 0.0007 6.6667e-05 -0.0009 -0.0022 -0.00316 -0.0041333 -0.0050333 -0.0065 -0.0076 -0.0080667 -0.00868 -0.0103 -0.0103 -0.0103 -0.0108 -0.0135 -0.0149 -0.0156 -0.016 -0.015567 -0.0157 -0.0162 -0.017 -0.0173 -0.017733 -0.018 -0.018 -0.0176 -0.01812 -0.0183 -0.0183 -0.0187 -0.0193 -0.019267 -0.019867 -0.021267 -0.023467 -0.0241 -0.024767 -0.025 -0.025 -0.0245 -0.0247 -0.024067 -0.024467 -0.0247 -0.025 -0.025133 -0.026033 -0.0275 -0.0287 -0.030533 -0.0325 -0.035367 -0.0375 -0.0395 -0.040733 -0.041733 -0.0424 -0.043 -0.043 -0.043 -0.0436 -0.044 -0.04416 -0.045433 -0.046767 -0.0481 -0.0495 -0.051233 -0.05268 -0.0541 -0.055267 -0.055933 -0.0563 -0.056367 -0.057 -0.0571 -0.057733 -0.0587 -0.0595 -0.061267 -0.0632 -0.0651 -0.066467 -0.0675 -0.068767 -0.069433 -0.0697 -0.07 -0.069733 -0.06936 -0.068567 -0.066367 -0.0602 -0.0483 -0.038767 -0.034667 -0.0341 -0.036267 -0.0434 -0.050233 -0.057733 -0.0643 -0.0705 -0.0728 -0.0742 -0.0753 -0.0772 -0.07904 -0.0801 -0.080933 -0.08204 -0.082833 -0.083733 -0.084 -0.084 -0.083733 -0.083667 -0.083467 -0.0837 -0.0837 -0.083633 -0.082967 -0.0827 -0.082467 -0.082733 -0.0836 -0.0835 -0.0835 -0.081067 -0.078 -0.0748 -0.07436 -0.073767 -0.074433 -0.0747 -0.0738 -0.071733 -0.06788 -0.063867 -0.058533 -0.0554 -0.0528 -0.0508 -0.0488 -0.046133 -0.042733 -0.0405 -0.0371 -0.0331 -0.0291 -0.0266 -0.025533 -0.0254 -0.028233 -0.032533 -0.0352
-0.02664 -0.0274 -0.028 -0.0298 -0.0298 -0.029933 -0.029133 -0.03 -0.0318 -0.034467 -0.037133 -0.0386 -0.0386 -0.0364 -0.033867 -0.031433 -0.0294 -0.0282 -0.027733 -0.029067 -0.0302 -0.030333 -0.0284 -0.0268 -0.025067 -0.025733 -0.026267 -0.027867 -0.0292 -0.0294 -0.029333 -0.028667 -0.0274 -0.025667 -0.024333 -0.023933 -0.023833 -0.024533 -0.025533 -0.026867 -0.0278 -0.0278 -0.02712 -0.0266 -0.026667 -0.028 -0.03 -0.032 -0.03348 -0.0342 -0.034 -0.032533 -0.029867 -0.028067 -0.027 -0.027 -0.0274 -0.028067 -0.028733 -0.029 -0.029 -0.029 -0.029 -0.0289 -0.027533 -0.026067 -0.0246 -0.022533 -0.019867 -0.01748 -0.0148 -0.0128 -0.0108 -0.0088 -0.007 -0.00544 -0.0044 -0.0037333 -0.0030667 -0.002 -2.228e-17 0.002 0.004 0.0062667 0.0079333 0.0098 0.0118 0.014067 0.018067 0.022467 0.027267 0.0316 0.0378 0.0454 0.055133 0.074467 0.09776 0.1206 0.141 0.17313 0.2024 0.2224 0.2388 0.2556 0.2696 0.2842 0.2976 0.3102 0.321 0.33147 0.34027 0.35013 0.3594 0.3692 0.3772 0.38433 0.3902 0.39677 0.40167 0.4054 0.40673 0.40407 0.39907 0.39267 0.3842 0.3752 0.36567 0.35433 0.34687 0.34193 0.34453 0.35187 0.3517 0.34887 0.34687 0.3451 0.33893 0.33227 0.33468 0.3402 0.34313 0.33993 0.32247 0.30513 0.30216 0.3102 0.3256 0.3296 0.32687 0.32353 0.3156 0.301 0.28033 0.2602 0.24333 0.23867 0.2402 0.24653 0.24347 0.2443 0.2334 0.2272 0.226 0.22607 0.22473 0.22144 0.2152 0.2102 0.2007 0.1782 0.1466 0.1202 0.1 0.086533 0.072667 0.062467 0.055133 0.052 0.0512 0.043467 0.040867 0.0338 0.0316 0.0352 0.038133 0.034533 0.029267 0.0238 0.018067 0.0166 0.018067 0.016267 0.011467 0.0049333 0.0022667 0.00068 0.0002 0.0006 -0.0001 -0.001 0.0002 0.001 0.001 0.0006 -0.0001 -0.0016 -0.0026 -0.0034 -0.0041333 -0.0057333 -0.0069333 -0.0076 -0.0086 -0.0094 -0.0096 -0.0090667 -0.0092 -0.011133 -0.013667 -0.014733 -0.015 -0.014333 -0.014867 -0.0156 -0.0162 -0.0162 -0.016 -0.017067 -0.016667 -0.0166 -0.0168 -0.0172 -0.0176 -0.0176 -0.01792 -0.018 -0.018867 -0.020067 -0.022 -0.024 -0.0248 -0.025 -0.025 -0.025167 -0.0252 -0.024733 -0.025 -0.025 -0.025 -0.0254 -0.026 -0.026267 -0.027967 -0.029267 -0.031267 -0.033933 -0.036867 -0.038733 -0.040067 -0.041867 -0.042533 -0.043 -0.043 -0.043 -0.043 -0.0436 -0.044 -0.0448 -0.045933 -0.047267 -0.04888 -0.0506 -0.052 -0.05356 -0.0546 -0.055267 -0.055933 -0.056 -0.0566 -0.057133 -0.058067 -0.058733 -0.05964 -0.0612 -0.0632 -0.0652 -0.0664 -0.0684 -0.0694 -0.070067 -0.070467 -0.071133 -0.0712 -0.0706 -0.0686 -0.065333 -0.056667 -0.04452 -0.0328 -0.028 -0.024933 -0.0264 -0.0322 -0.041 -0.051267 -0.059933 -0.06748 -0.0708 -0.073 -0.0744 -0.0772 -0.0792 -0.08032 -0.0812 -0.0826 -0.0834 -0.084 -0.084 -0.084 -0.084 -0.084 -0.084133 -0.0842 -0.0842 -0.0842 -0.084133 -0.083467 -0.0832 -0.0832 -0.0836 -0.084 -0.0838 -0.081867 -0.079067 -0.0762 -0.0754 -0.0754 -0.0752 -0.075467 -0.075067 -0.0736 -0.0706 -0.0658 -0.060067 -0.056733 -0.05292 -0.0504 -0.048133 -0.0452 -0.041133 -0.036467 -0.0318 -0.027867 -0.0248 -0.0212 -0.0204 -0.020667 -0.023867 -0.0288 -0.0328
-0.026933 -0.027933 -0.0284 -0.029 -0.029 -0.029133 -0.029267 -0.030267 -0.0326 -0.0354 -0.038067 -0.038467 -0.03728 -0.035333 -0.0328 -0.0301 -0.0274 -0.026067 -0.0258 -0.0274 -0.0286 -0.028067 -0.026733 -0.0258 -0.0248 -0.0246 -0.025333 -0.026533 -0.027533 -0.027 -0.0266 -0.0266 -0.025933 -0.0248 -0.024133 -0.023267 -0.0225 -0.02344 -0.024467 -0.025933 -0.026933 -0.0276 -0.027067 -0.025733 -0.0256 -0.0268 -0.0288 -0.0308 -0.031867 -0.032533 -0.0326 -0.0314 -0.0294 -0.0278 -0.027 -0.027 -0.027 -0.028 -0.028867 -0.0294 -0.0292 -0.029 -0.029 -0.0289 -0.02772 -0.0258 -0.0238 -0.0218 -0.0198 -0.017133 -0.0148 -0.0128 -0.01068 -0.0087333 -0.0074 -0.0064667 -0.0054667 -0.0048 -0.0037333 -0.0027333 -0.0008 0.0008 0.0028 0.0048 0.0066 0.00836 0.010067 0.012733 0.0164 0.021 0.026333 0.032 0.0386 0.045667 0.055267 0.0732 0.098533 0.1216 0.143 0.17447 0.20413 0.2236 0.23773 0.251 0.265 0.27836 0.29227 0.305 0.31673 0.32773 0.3384 0.34947 0.36213 0.3724 0.38093 0.3876 0.393 0.3961 0.3966 0.397 0.3962 0.39307 0.38773 0.38013 0.37147 0.363 0.3558 0.34973 0.34367 0.34047 0.3458 0.3532 0.3557 0.3538 0.35113 0.3491 0.3426 0.3408 0.3456 0.3506 0.3534 0.34807 0.33207 0.314 0.31307 0.3228 0.3352 0.33227 0.32767 0.3252 0.31413 0.29313 0.2654 0.2414 0.22407 0.219 0.22567 0.23433 0.2344 0.2323 0.23113 0.2288 0.22853 0.2282 0.2276 0.22533 0.22133 0.2114 0.20272 0.17833 0.1426 0.12087 0.10247 0.0844 0.074933 0.066267 0.0568 0.053067 0.049867 0.0416 0.037533 0.0332 0.0316 0.030533 0.0292 0.0284 0.027933 0.0226 0.0178 0.0186 0.0206 0.017867 0.011733 0.0057333 0.0022 0.00033333 0.00033333 0.001 -8e-05 -0.0008 0.0006 0.001 0.001 0.0004 -0.00012 -0.0012 -0.0026 -0.0032667 -0.0039333 -0.0052 -0.0062667 -0.0071333 -0.0086 -0.0083333 -0.0076667 -0.0076 -0.0092 -0.0112 -0.0126 -0.013267 -0.013267 -0.0126 -0.013533 -0.014533 -0.0146 -0.014867 -0.015867 -0.016 -0.015333 -0.015 -0.0156 -0.0156 -0.016267 -0.0176 -0.017333 -0.017333 -0.0186 -0.019933 -0.021267 -0.0232 -0.024267 -0.024933 -0.025 -0.025833 -0.026 -0.0254 -0.0254 -0.025067 -0.025 -0.025267 -0.025933 -0.026 -0.0273 -0.02836 -0.0302 -0.032467 -0.035133 -0.0378 -0.039933 -0.0412 -0.0426 -0.043 -0.043 -0.043 -0.043 -0.043 -0.0436 -0.044267 -0.045267 -0.0466 -0.0482 -0.049867 -0.0512 -0.052933 -0.053933 -0.0546 -0.055267 -0.055933 -0.0566 -0.057267 -0.057933 -0.0586 -0.059933 -0.061267 -0.0632 -0.0652 -0.0672 -0.0686 -0.069667 -0.070333 -0.071 -0.071667 -0.072 -0.0714 -0.069933 -0.0656 -0.0548 -0.041333 -0.031 -0.026 -0.021067 -0.0184 -0.023 -0.031933 -0.044267 -0.0558 -0.063533 -0.068733 -0.0726 -0.07544 -0.077533 -0.0796 -0.080267 -0.080933 -0.0822 -0.083667 -0.084 -0.084 -0.084 -0.084 -0.084 -0.084667 -0.085 -0.085 -0.085 -0.085 -0.0844 -0.084 -0.084 -0.084 -0.0844 -0.084067 -0.0828 -0.080533 -0.078533 -0.0778 -0.076733 -0.076067 -0.076 -0.076133 -0.075067 -0.0726 -0.0674 -0.061733 -0.0576 -0.0536 -0.0496 -0.0468 -0.0432 -0.038533 -0.0326 -0.0282 -0.0242 -0.0208 -0.0184 -0.016667 -0.0172 -0.020933 -0.026267 -0.031
-0.0267 -0.027967 -0.028667 -0.029 -0.029067 -0.02972 -0.0296 -0.030933 -0.032867 -0.0355 -0.0373 -0.036867 -0.035 -0.032667 -0.03 -0.027 -0.024767 -0.023867 -0.0241 -0.025367 -0.02612 -0.0269 -0.025367 -0.024733 -0.024 -0.024 -0.02404 -0.025 -0.024867 -0.024933 -0.0245 -0.023833 -0.024033 -0.024 -0.023867 -0.02256 -0.022 -0.022433 -0.02376 -0.0251 -0.025567 -0.026267 -0.026 -0.025067 -0.025 -0.0256 -0.0268 -0.028133 -0.0292 -0.029867 -0.0306 -0.0296 -0.028867 -0.02756 -0.0265 -0.0263 -0.026933 -0.0278 -0.029067 -0.029733 -0.0297 -0.029633 -0.029 -0.0285 -0.0278 -0.0258 -0.0233 -0.0211 -0.019133 -0.0163 -0.0141 -0.012133 -0.0101 -0.0080667 -0.0073333 -0.007 -0.0067333 -0.0060667 -0.0048 -0.0034667 -0.0022 -0.0007 0.0015 0.0035333 0.0057 0.0075 0.00948 0.0114 0.015 0.020867 0.0267 0.0333 0.04 0.0467 0.055933 0.073333 0.0998 0.1216 0.1454 0.1744 0.20147 0.2212 0.2355 0.249 0.26173 0.2741 0.28693 0.297 0.3077 0.31897 0.33133 0.3435 0.35797 0.3712 0.3785 0.3855 0.38687 0.3881 0.38793 0.3864 0.3838 0.37967 0.37432 0.3668 0.35813 0.35 0.3447 0.34443 0.34752 0.3477 0.3551 0.36213 0.3657 0.3638 0.35796 0.3532 0.3472 0.34527 0.3471 0.3517 0.3544 0.3516 0.33813 0.32913 0.3226 0.3308 0.33404 0.3314 0.32633 0.3202 0.30777 0.28673 0.2598 0.2361 0.21977 0.2167 0.2231 0.22817 0.24064 0.2378 0.24047 0.24293 0.243 0.2398 0.2322 0.2272 0.22067 0.21293 0.1935 0.16967 0.14267 0.1199 0.099133 0.083133 0.0765 0.067367 0.0593 0.0503 0.044533 0.04492 0.041 0.0382 0.02988 0.0253 0.0233 0.0237 0.0244 0.02 0.019667 0.0209 0.021233 0.01668 0.0106 0.0056667 0.0022333 0 0.00026667 0.00033333 -0.0001 -0.0008 -6.6667e-05 0.0005 0.0003 0.00033333 -0.0004 -0.0012 -0.0025333 -0.0031 -0.0039667 -0.0046 -0.0056 -0.0064667 -0.0066667 -0.007 -0.0063333 -0.0082 -0.0093 -0.0105 -0.011267 -0.0111 -0.010633 -0.0106 -0.0119 -0.013033 -0.0134 -0.0141 -0.015233 -0.01496 -0.0142 -0.0136 -0.01484 -0.014433 -0.015767 -0.0169 -0.016633 -0.017733 -0.0186 -0.019633 -0.020767 -0.0221 -0.0234 -0.024267 -0.02516 -0.026 -0.026 -0.026 -0.026 -0.025733 -0.0257 -0.0255 -0.025967 -0.026 -0.0267 -0.0282 -0.0302 -0.0323 -0.035167 -0.0372 -0.0395 -0.0412 -0.041933 -0.043 -0.043 -0.043 -0.043 -0.043 -0.043 -0.0437 -0.045233 -0.04652 -0.0475 -0.049233 -0.0506 -0.0526 -0.053267 -0.053933 -0.0546 -0.055267 -0.05652 -0.057067 -0.057733 -0.0586 -0.0601 -0.062167 -0.0639 -0.0652 -0.0679 -0.0694 -0.0701 -0.070967 -0.07152 -0.0721 -0.0727 -0.0708 -0.069 -0.063867 -0.0548 -0.043567 -0.0357 -0.0277 -0.0227 -0.0185 -0.023467 -0.0321 -0.042433 -0.053467 -0.0609 -0.066067 -0.071267 -0.0757 -0.078867 -0.079 -0.0796 -0.080267 -0.082267 -0.0841 -0.0847 -0.084067 -0.0845 -0.0847 -0.085333 -0.0855 -0.0857 -0.0857 -0.085467 -0.0857 -0.0851 -0.0849 -0.0847 -0.0847 -0.0854 -0.084733 -0.084067 -0.0822 -0.080233 -0.0789 -0.0776 -0.076733 -0.07652 -0.0769 -0.075733 -0.07348 -0.068867 -0.063967 -0.0591 -0.0549 -0.0503 -0.0469 -0.042767 -0.035733 -0.0308 -0.0263 -0.0229 -0.02012 -0.0171 -0.015333 -0.0172 -0.0209 -0.025633 -0.0304
-0.0261 -0.028 -0.0288 -0.029 -0.029 -0.0294 -0.0301 -0.0312 -0.0326 -0.0344 -0.0344 -0.033267 -0.030767 -0.028067 -0.025667 -0.023433 -0.022333 -0.0222 -0.023 -0.0246 -0.0254 -0.0259 -0.025 -0.0244 -0.024 -0.024 -0.023667 -0.023667 -0.023 -0.0226 -0.022 -0.0226 -0.023933 -0.0249 -0.024067 -0.0228 -0.021767 -0.0218 -0.022533 -0.023733 -0.0242 -0.024933 -0.0248 -0.0246 -0.0248 -0.0248 -0.025 -0.0258 -0.026867 -0.0282 -0.028933 -0.028667 -0.0278 -0.026333 -0.0258 -0.0256 -0.026267 -0.027067 -0.0286 -0.0294 -0.029933 -0.029267 -0.029 -0.0279 -0.026533 -0.025067 -0.0228 -0.0208 -0.018467 -0.0158 -0.0138 -0.0114 -0.0089 -0.0078 -0.0073333 -0.0073333 -0.0078 -0.0074 -0.0064667 -0.0058 -0.0038667 -0.0018667 0.0008 0.0028667 0.0049667 0.0062667 0.0081333 0.010267 0.014 0.019867 0.026933 0.0348 0.042333 0.0494 0.058 0.074 0.097867 0.11893 0.1436 0.1686 0.1922 0.2142 0.23167 0.2444 0.2576 0.2693 0.2788 0.287 0.29593 0.3056 0.319 0.33287 0.34847 0.36087 0.37077 0.3738 0.37587 0.3758 0.374 0.3716 0.3691 0.3662 0.3608 0.3539 0.3454 0.3414 0.3394 0.3434 0.34987 0.358 0.367 0.3748 0.37827 0.37493 0.36813 0.35803 0.3512 0.34593 0.345 0.3486 0.3498 0.3494 0.3406 0.3338 0.33047 0.3322 0.3336 0.3282 0.3216 0.3122 0.29847 0.28227 0.26293 0.2388 0.2222 0.2222 0.23212 0.2414 0.2516 0.25992 0.2644 0.26527 0.26163 0.253 0.2412 0.22937 0.2216 0.2104 0.1964 0.168 0.143 0.11887 0.0948 0.079467 0.076267 0.0708 0.0588 0.05304 0.0482 0.0482 0.04732 0.0448 0.0354 0.0278 0.021133 0.020333 0.021267 0.0212 0.021333 0.0241 0.0218 0.018 0.010133 0.006 0.0025333 6.6667e-05 -0.0002 -0.001 -0.002 -0.0014 -0.00073333 0.0001 0.0002 0.0002 0.0001 -0.0006 -0.0017333 -0.0028 -0.0032 -0.004 -0.0046667 -0.0053333 -0.0056 -0.0057333 -0.0058 -0.0072 -0.0085333 -0.0092 -0.0096 -0.0086667 -0.0084 -0.0085333 -0.010133 -0.012867 -0.013533 -0.014 -0.0146 -0.014 -0.01368 -0.0132 -0.0144 -0.0148 -0.015133 -0.0166 -0.016333 -0.017267 -0.0186 -0.019 -0.019933 -0.021267 -0.02256 -0.0236 -0.0244 -0.02556 -0.026 -0.026 -0.026 -0.026 -0.026 -0.025833 -0.0258 -0.026 -0.0262 -0.027667 -0.029667 -0.032333 -0.0352 -0.0372 -0.039067 -0.0406 -0.041733 -0.042933 -0.043 -0.043 -0.043 -0.043 -0.043 -0.043133 -0.0446 -0.046 -0.04732 -0.0488 -0.0506 -0.052067 -0.053 -0.0536 -0.0541 -0.0554 -0.0564 -0.0572 -0.058 -0.058133 -0.06 -0.0612 -0.063733 -0.0652 -0.0672 -0.0692 -0.07032 -0.071 -0.0718 -0.07264 -0.0734 -0.0714 -0.0682 -0.064133 -0.0576 -0.0488 -0.042133 -0.035733 -0.029333 -0.0282 -0.031 -0.036733 -0.0458 -0.054467 -0.0598 -0.0654 -0.0702 -0.0753 -0.0786 -0.079333 -0.079467 -0.0812 -0.082933 -0.084267 -0.0854 -0.085067 -0.085333 -0.086 -0.086333 -0.0862 -0.0864 -0.086333 -0.086167 -0.0862 -0.086333 -0.0862 -0.086 -0.0862 -0.086067 -0.0854 -0.0844 -0.0836 -0.0816 -0.0796 -0.07812 -0.077 -0.0768 -0.07636 -0.0754 -0.0738 -0.0706 -0.067067 -0.0628 -0.0574 -0.0524 -0.048133 -0.043467 -0.0366 -0.0306 -0.02688 -0.024 -0.0208 -0.01884 -0.0172 -0.018533 -0.022133 -0.0272 -0.031067
-0.0261 -0.02728 -0.028533 -0.029 -0.029 -0.029 -0.02996 -0.030933 -0.0312 -0.0314 -0.030733 -0.029133 -0.0261 -0.02316 -0.0214 -0.0201 -0.02068 -0.021133 -0.0222 -0.0242 -0.0256 -0.026 -0.025067 -0.0244 -0.024 -0.024 -0.0234 -0.022733 -0.022067 -0.0216 -0.02208 -0.022267 -0.0242 -0.0249 -0.02372 -0.022267 -0.0211 -0.02052 -0.0216 -0.022267 -0.022933 -0.0236 -0.0236 -0.023933 -0.0242 -0.02388 -0.023733 -0.0242 -0.025533 -0.026867 -0.0276 -0.027333 -0.026667 -0.0254 -0.025 -0.025 -0.0256 -0.026933 -0.028267 -0.0296 -0.03 -0.029533 -0.029 -0.0279 -0.02672 -0.0248 -0.0228 -0.0208 -0.0182 -0.0158 -0.013467 -0.011 -0.00916 -0.0081333 -0.008 -0.0086667 -0.0096667 -0.0098 -0.0091333 -0.0078 -0.0052 -0.0025333 0.00013333 0.0022 0.0043 0.00536 0.0070667 0.0097333 0.0134 0.0192 0.027467 0.036133 0.0442 0.0522 0.060333 0.0752 0.0932 0.11288 0.1336 0.15372 0.17947 0.203 0.22153 0.23653 0.2486 0.26012 0.269 0.2758 0.28127 0.29027 0.3038 0.3162 0.32988 0.34367 0.35143 0.35727 0.3596 0.3598 0.35944 0.3584 0.35664 0.3536 0.3502 0.34452 0.336 0.3368 0.34 0.34687 0.35533 0.3668 0.37913 0.3876 0.3896 0.3884 0.37893 0.36937 0.3572 0.3494 0.345 0.345 0.345 0.34312 0.33927 0.3342 0.33153 0.33087 0.3284 0.32 0.311 0.2974 0.28633 0.27833 0.264 0.2504 0.2394 0.2374 0.2478 0.2628 0.2756 0.2836 0.2886 0.2878 0.28097 0.26813 0.2536 0.23803 0.2242 0.2138 0.19872 0.17433 0.1538 0.12473 0.094733 0.0804 0.075733 0.072067 0.0644 0.0588 0.056133 0.0578 0.057 0.05 0.0394 0.0302 0.022867 0.0198 0.021933 0.023267 0.024 0.0281 0.02876 0.021467 0.015067 0.0077333 0.004 0.0014 -0.00036 -0.0015333 -0.00188 -0.0017333 -0.001 0.0001 0.0016 0.0024 0.0012 0.00013333 -0.0012 -0.0016 -0.0016 -0.0016 -0.0024 -0.0026 -0.0026667 -0.0034667 -0.0044667 -0.0052 -0.0058667 -0.0065333 -0.0072 -0.0069333 -0.0069333 -0.0076 -0.0094667 -0.0118 -0.0126 -0.013267 -0.013267 -0.012 -0.011867 -0.012867 -0.0136 -0.014667 -0.015667 -0.017 -0.017667 -0.018333 -0.019 -0.019 -0.019333 -0.0206 -0.021933 -0.022933 -0.0236 -0.024933 -0.0256 -0.0256 -0.026 -0.026 -0.026 -0.025167 -0.025 -0.0256 -0.0262 -0.0282 -0.030333 -0.032467 -0.035133 -0.0372 -0.038933 -0.0402 -0.0416 -0.042267 -0.042933 -0.043 -0.043 -0.043067 -0.043 -0.043267 -0.044267 -0.0456 -0.046933 -0.048267 -0.0502 -0.051933 -0.052933 -0.0536 -0.0541 -0.054933 -0.0556 -0.056933 -0.0576 -0.0576 -0.0592 -0.0612 -0.0632 -0.0652 -0.0672 -0.0686 -0.069933 -0.071267 -0.0726 -0.073667 -0.074 -0.0722 -0.067667 -0.062667 -0.058 -0.0548 -0.050133 -0.0436 -0.040267 -0.0396 -0.0402 -0.042067 -0.049067 -0.057 -0.0622 -0.066267 -0.0718 -0.07544 -0.078267 -0.0796 -0.080933 -0.082333 -0.0836 -0.085333 -0.086333 -0.0864 -0.086667 -0.087333 -0.0874 -0.0874 -0.087067 -0.087 -0.086833 -0.087 -0.087 -0.087 -0.087 -0.087 -0.086333 -0.085333 -0.084 -0.0824 -0.080733 -0.0794 -0.078067 -0.077067 -0.0764 -0.075733 -0.074733 -0.0734 -0.071533 -0.068867 -0.0656 -0.0614 -0.057067 -0.0512 -0.044533 -0.038533 -0.0338 -0.029667 -0.026667 -0.024 -0.022267 -0.021133 -0.0224 -0.025867 -0.029867 -0.0332
-0.0257 -0.027133 -0.028467 -0.029 -0.029 -0.029 -0.0294 -0.030267 -0.029667 -0.0291 -0.0277 -0.02572 -0.0233 -0.020467 -0.01916 -0.0191 -0.020067 -0.021167 -0.0225 -0.0242 -0.0256 -0.026 -0.025733 -0.025067 -0.0249 -0.0247 -0.024067 -0.0234 -0.022733 -0.022067 -0.0221 -0.022933 -0.024267 -0.0249 -0.0238 -0.0218 -0.0205 -0.020133 -0.02148 -0.0221 -0.022967 -0.023 -0.0226 -0.023267 -0.023267 -0.0233 -0.023067 -0.022933 -0.0242 -0.025533 -0.026267 -0.026 -0.025333 -0.025333 -0.0254 -0.025 -0.0256 -0.0267 -0.028233 -0.0296 -0.03 -0.029933 -0.02924 -0.0279 -0.0268 -0.0248 -0.0232 -0.0208 -0.018867 -0.0162 -0.013533 -0.011533 -0.0103 -0.0094667 -0.01 -0.011 -0.012333 -0.0124 -0.0112 -0.0092 -0.0059333 -0.0027 0.00016667 0.0022 0.0041 0.0051333 0.00648 0.0084 0.012 0.019067 0.027 0.036067 0.044667 0.0525 0.061667 0.0716 0.087 0.1044 0.12353 0.1426 0.16413 0.18573 0.2052 0.22187 0.2352 0.2461 0.255 0.26047 0.2661 0.27483 0.2854 0.2977 0.30977 0.3206 0.3318 0.33873 0.34227 0.3449 0.34583 0.34647 0.3458 0.3436 0.341 0.3382 0.334 0.3368 0.3425 0.3501 0.36004 0.3714 0.38567 0.3932 0.3945 0.39457 0.38904 0.3781 0.3671 0.35493 0.3467 0.3429 0.34113 0.3366 0.33193 0.329 0.3262 0.32553 0.31807 0.30573 0.2945 0.2851 0.28277 0.27657 0.2676 0.265 0.26047 0.2631 0.2687 0.28053 0.2899 0.2958 0.3004 0.29853 0.2915 0.28197 0.26607 0.2466 0.2294 0.21213 0.202 0.18767 0.165 0.12733 0.10293 0.087 0.077533 0.0746 0.0699 0.064367 0.061733 0.0607 0.0579 0.047467 0.0374 0.028933 0.023567 0.0221 0.0228 0.023933 0.025 0.0271 0.030133 0.02524 0.016 0.0094667 0.0053 0.0023 0.00056667 -0.00076667 -0.0013 -0.0010667 0.00026667 0.0007 0.0029 0.0036 0.0029 0.0014667 0.0008 0.0013 0.0011 0.0012 0.0009 0.0015 0.00156 0.0016 0.00026667 -0.0004 -0.0017 -0.0031667 -0.0044667 -0.0051667 -0.0060333 -0.0071 -0.0085 -0.010067 -0.0112 -0.012933 -0.0127 -0.0124 -0.012533 -0.013433 -0.0145 -0.015833 -0.0176 -0.0188 -0.019467 -0.019267 -0.019 -0.019067 -0.019733 -0.0207 -0.021367 -0.022033 -0.0231 -0.0244 -0.025 -0.025 -0.0255 -0.0253 -0.0253 -0.025 -0.025 -0.026267 -0.0271 -0.0289 -0.03092 -0.0331 -0.035167 -0.0372 -0.0389 -0.0402 -0.040933 -0.042 -0.042267 -0.042933 -0.0433 -0.043733 -0.043067 -0.043467 -0.043767 -0.0451 -0.0465 -0.048233 -0.0502 -0.0521 -0.052967 -0.05316 -0.054067 -0.054733 -0.0558 -0.057 -0.057 -0.0577 -0.0585 -0.0605 -0.0626 -0.0652 -0.066767 -0.0681 -0.069433 -0.0712 -0.0729 -0.0747 -0.0734 -0.0704 -0.067533 -0.0633 -0.0604 -0.059267 -0.054367 -0.0495 -0.0453 -0.0455 -0.0455 -0.0479 -0.055033 -0.0592 -0.0644 -0.068933 -0.074333 -0.0769 -0.078933 -0.080267 -0.0819 -0.083667 -0.084267 -0.0861 -0.086967 -0.087633 -0.0875 -0.087967 -0.088667 -0.0884 -0.087733 -0.08752 -0.0877 -0.087267 -0.087 -0.087 -0.087 -0.086367 -0.085333 -0.083133 -0.0818 -0.080467 -0.079567 -0.0786 -0.077933 -0.076833 -0.0759 -0.075167 -0.073833 -0.0726 -0.071733 -0.069933 -0.0676 -0.065333 -0.060233 -0.0544 -0.049667 -0.044333 -0.0395 -0.035633 -0.032533 -0.0299 -0.0274 -0.026467 -0.028333 -0.0309 -0.033233 -0.035933
-0.0252 -0.0272 -0.0282 -0.029 -0.029 -0.029 -0.029 -0.029 -0.0286 -0.0276 -0.0256 -0.024 -0.021933 -0.019267 -0.0188 -0.019333 -0.020667 -0.022 -0.023133 -0.024467 -0.0254 -0.0262 -0.0264 -0.026067 -0.0262 -0.0258 -0.025067 -0.0244 -0.0242 -0.023067 -0.023267 -0.023933 -0.0246 -0.024867 -0.023533 -0.0218 -0.020467 -0.021133 -0.0216 -0.022267 -0.022933 -0.0226 -0.0218 -0.0218 -0.0218 -0.022 -0.022 -0.0224 -0.0231 -0.0246 -0.024933 -0.024933 -0.025 -0.025333 -0.025867 -0.025 -0.0256 -0.026267 -0.0282 -0.0292 -0.029733 -0.029067 -0.0288 -0.027867 -0.026533 -0.0254 -0.0238 -0.0218 -0.0194 -0.017 -0.015 -0.013 -0.0114 -0.0114 -0.0122 -0.0135 -0.0144 -0.0138 -0.012933 -0.010267 -0.0066 -0.0027333 -6.6667e-05 0.0024 0.0042667 0.0049333 0.0058 0.007 0.011 0.0174 0.025467 0.034133 0.0428 0.051533 0.060867 0.0706 0.081333 0.098667 0.1134 0.12907 0.14973 0.16907 0.18733 0.2048 0.2176 0.22927 0.23793 0.2448 0.25187 0.26053 0.2692 0.2792 0.2912 0.3024 0.313 0.321 0.3268 0.3316 0.3356 0.3372 0.33747 0.33613 0.3358 0.3358 0.3358 0.34 0.345 0.351 0.3604 0.3719 0.3836 0.39153 0.3945 0.39353 0.3894 0.3838 0.3718 0.3618 0.3494 0.3434 0.3364 0.33007 0.32273 0.3204 0.32053 0.31787 0.30773 0.29347 0.28073 0.27807 0.2764 0.2726 0.2666 0.2676 0.2726 0.2746 0.2834 0.2914 0.2974 0.29928 0.3026 0.3006 0.29613 0.28747 0.274 0.254 0.232 0.2122 0.19933 0.19067 0.16833 0.1274 0.097067 0.085733 0.08 0.075733 0.071067 0.0656 0.0594 0.0574 0.0504 0.0414 0.0314 0.026 0.022867 0.021533 0.02116 0.0218 0.0218 0.023667 0.024333 0.02 0.014533 0.0098667 0.006 0.0030667 0.0017333 0.0008 0.0002 0.0002 0.0006 0.0013333 0.0026667 0.0036 0.0043333 0.0036667 0.0042 0.0050667 0.0057333 0.006 0.0066667 0.0073333 0.0082 0.0079 0.0078 0.0056 0.0024667 0.0002 -0.0018 -0.0038 -0.0049333 -0.0062667 -0.0072 -0.009 -0.011 -0.0124 -0.014 -0.014 -0.0146 -0.015467 -0.016133 -0.017 -0.018333 -0.019667 -0.0202 -0.019933 -0.019267 -0.0192 -0.019267 -0.019933 -0.0204 -0.021133 -0.022467 -0.02356 -0.0246 -0.0248 -0.0248 -0.0248 -0.0248 -0.025067 -0.025733 -0.027 -0.0284 -0.0304 -0.0322 -0.034133 -0.035467 -0.0368 -0.038133 -0.039467 -0.0408 -0.042 -0.042 -0.0424 -0.043267 -0.043933 -0.0438 -0.043933 -0.044067 -0.044733 -0.0462 -0.0482 -0.0502 -0.0521 -0.053 -0.053 -0.0534 -0.053933 -0.055267 -0.0562 -0.057 -0.057 -0.0584 -0.0602 -0.0622 -0.064 -0.065933 -0.067267 -0.0692 -0.071 -0.073 -0.0734 -0.072467 -0.069133 -0.0658 -0.063267 -0.061933 -0.0602 -0.057933 -0.052867 -0.049333 -0.048667 -0.05 -0.053733 -0.059067 -0.0616 -0.0636 -0.0696 -0.0744 -0.077933 -0.079267 -0.0814 -0.083067 -0.083733 -0.0848 -0.086067 -0.086733 -0.0876 -0.088067 -0.088733 -0.089 -0.0891 -0.0886 -0.0886 -0.0878 -0.087 -0.087 -0.0869 -0.0868 -0.086067 -0.0846 -0.0826 -0.0806 -0.079 -0.0778 -0.0778 -0.0768 -0.075733 -0.075067 -0.074 -0.072733 -0.072067 -0.0714 -0.071267 -0.069933 -0.0674 -0.064133 -0.059467 -0.055 -0.0508 -0.0468 -0.0428 -0.038867 -0.035533 -0.03332 -0.0322 -0.0332 -0.035733 -0.037067 -0.0392
-0.025 -0.026333 -0.027667 -0.0288 -0.029 -0.029 -0.029 -0.029 -0.028333 -0.0272 -0.026533 -0.0252 -0.0232 -0.0212 -0.0204 -0.0206 -0.021733 -0.022533 -0.0232 -0.024333 -0.025667 -0.02708 -0.027067 -0.027 -0.027 -0.027 -0.0264 -0.0264 -0.026067 -0.0248 -0.0246 -0.02484 -0.0254 -0.025 -0.023667 -0.022467 -0.0222 -0.0224 -0.022933 -0.0234 -0.0234 -0.021933 -0.0206 -0.0202 -0.020733 -0.0216 -0.022 -0.022533 -0.02312 -0.024 -0.024 -0.024267 -0.024933 -0.0256 -0.025333 -0.024667 -0.0252 -0.026533 -0.027867 -0.0288 -0.029 -0.029467 -0.029333 -0.0282 -0.027533 -0.0262 -0.0242 -0.0222 -0.0202 -0.0182 -0.0162 -0.014733 -0.0136 -0.0134 -0.013667 -0.01496 -0.015933 -0.015 -0.0136 -0.010467 -0.0066 -0.0026 0.00093333 0.0032 0.0048 0.005 0.005 0.0054 0.0086 0.015 0.0232 0.031867 0.040533 0.0494 0.058733 0.0686 0.079 0.091267 0.10473 0.1194 0.13547 0.154 0.17147 0.1878 0.2012 0.2116 0.22093 0.2312 0.241 0.248 0.25547 0.2654 0.2772 0.28867 0.2996 0.30867 0.31653 0.3228 0.3272 0.32987 0.331 0.33167 0.33287 0.3344 0.3364 0.33853 0.3416 0.34653 0.3536 0.3636 0.3764 0.3842 0.3865 0.38732 0.38607 0.3834 0.37793 0.36607 0.3496 0.33827 0.33147 0.3248 0.31813 0.3152 0.3142 0.30993 0.29773 0.28133 0.27253 0.2728 0.27027 0.2646 0.2612 0.2676 0.2766 0.2866 0.2938 0.29847 0.3012 0.302 0.30167 0.3002 0.2966 0.29213 0.2776 0.2528 0.22287 0.20207 0.194 0.18873 0.16633 0.129 0.099933 0.0908 0.0828 0.077933 0.0748 0.068533 0.0618 0.0548 0.045333 0.035 0.028 0.0252 0.0232 0.0224 0.021467 0.020467 0.0228 0.0226 0.021467 0.018133 0.0144 0.0097333 0.0066667 0.0042 0.0026667 0.0018667 0.0012 0.001 0.0015333 0.0024 0.0037333 0.0050667 0.0064 0.0072667 0.0084667 0.0098 0.010667 0.0128 0.0152 0.018067 0.019267 0.01808 0.016667 0.0132 0.0078 0.00276 6.6667e-05 -0.0018 -0.0031333 -0.0032 -0.0050667 -0.0074 -0.0088 -0.011467 -0.0138 -0.0146 -0.015933 -0.016933 -0.017 -0.017933 -0.0192 -0.0206 -0.020733 -0.0204 -0.0204 -0.0204 -0.020267 -0.0204 -0.020267 -0.020933 -0.0216 -0.022533 -0.023867 -0.0242 -0.0238 -0.0236 -0.024133 -0.0252 -0.026733 -0.028067 -0.0294 -0.030733 -0.0322 -0.034 -0.035333 -0.036667 -0.038 -0.039333 -0.040667 -0.0418 -0.042 -0.042667 -0.0438 -0.044 -0.0434 -0.043267 -0.043933 -0.0446 -0.0458 -0.048133 -0.0502 -0.05196 -0.052733 -0.0526 -0.053 -0.053333 -0.0546 -0.055933 -0.057 -0.0576 -0.058933 -0.059933 -0.0612 -0.0632 -0.064867 -0.0668 -0.068533 -0.069867 -0.0718 -0.072733 -0.0714 -0.0682 -0.066867 -0.065867 -0.0646 -0.063 -0.06 -0.0554 -0.052 -0.05048 -0.053467 -0.0588 -0.062267 -0.062933 -0.0644 -0.0696 -0.074267 -0.0772 -0.079667 -0.081667 -0.083 -0.083867 -0.084667 -0.0862 -0.087733 -0.088 -0.088 -0.088467 -0.089133 -0.08996 -0.089067 -0.089 -0.088067 -0.087067 -0.087 -0.0869 -0.08608 -0.085267 -0.0838 -0.0818 -0.0798 -0.078067 -0.076667 -0.076 -0.074933 -0.0746 -0.074 -0.073067 -0.071733 -0.071 -0.071933 -0.072933 -0.0718 -0.070333 -0.067 -0.063 -0.060067 -0.0564 -0.0524 -0.0484 -0.0444 -0.0404 -0.038533 -0.037867 -0.038 -0.039 -0.040133 -0.0416
-0.0248 -0.026133 -0.027467 -0.0285 -0.0297 -0.0297 -0.0296 -0.028933 -0.0287 -0.0283 -0.027567 -0.026667 -0.0253 -0.024033 -0.022933 -0.0227 -0.022767 -0.023433 -0.0241 -0.024833 -0.026167 -0.0271 -0.027733 -0.02752 -0.0277 -0.0277 -0.0277 -0.027633 -0.026967 -0.0261 -0.0255 -0.025767 -0.026 -0.0253 -0.024567 -0.023667 -0.0237 -0.023767 -0.024867 -0.0252 -0.0238 -0.020933 -0.0188 -0.017667 -0.018767 -0.0202 -0.022067 -0.023167 -0.0237 -0.024 -0.024 -0.024067 -0.0243 -0.0243 -0.024233 -0.024 -0.0248 -0.0261 -0.027233 -0.027933 -0.0283 -0.0283 -0.028733 -0.0285 -0.027167 -0.025833 -0.0242 -0.0228 -0.021233 -0.0196 -0.018267 -0.0165 -0.0152 -0.014 -0.014433 -0.0147 -0.015267 -0.014733 -0.0127 -0.0099 -0.0059 -0.002 0.0012 0.0036333 0.0051 0.0057 0.0052667 0.0057 0.0069667 0.012767 0.0201 0.028767 0.037867 0.0472 0.0566 0.067467 0.0788 0.090333 0.10323 0.1169 0.1303 0.14448 0.1617 0.1758 0.18867 0.1987 0.20697 0.21677 0.2264 0.23733 0.24597 0.2563 0.26643 0.27863 0.2898 0.3002 0.30907 0.316 0.32107 0.32417 0.3261 0.32803 0.33023 0.3326 0.3352 0.33547 0.3374 0.34047 0.34627 0.3528 0.3624 0.37 0.3744 0.37577 0.37617 0.3752 0.3722 0.36193 0.3486 0.3336 0.3263 0.3198 0.31773 0.3142 0.3101 0.3029 0.291 0.2782 0.27187 0.26607 0.2669 0.2626 0.26868 0.2746 0.2846 0.29147 0.2966 0.29913 0.3006 0.3015 0.30103 0.2998 0.2967 0.29217 0.27727 0.2523 0.22017 0.19667 0.1852 0.1792 0.16132 0.1317 0.11127 0.094 0.0865 0.083267 0.080867 0.0742 0.0658 0.05496 0.0445 0.0357 0.034733 0.0296 0.0252 0.022467 0.0221 0.022433 0.0234 0.0241 0.0219 0.017467 0.0129 0.0090333 0.0072333 0.0056 0.0043333 0.0032333 0.0024 0.0024667 0.0031333 0.0042 0.0055333 0.0068667 0.0083 0.010233 0.012433 0.0143 0.015767 0.019733 0.0242 0.030933 0.0327 0.0307 0.027333 0.020867 0.0138 0.0063333 0.00172 -0.0001 -0.00056667 -0.0012333 -0.0023 -0.0041 -0.0086667 -0.0116 -0.0132 -0.013933 -0.0162 -0.017433 -0.0177 -0.0183 -0.0192 -0.0206 -0.0205 -0.0203 -0.021 -0.021 -0.020933 -0.021 -0.0205 -0.020967 -0.02116 -0.0221 -0.023233 -0.022667 -0.0223 -0.022367 -0.023033 -0.0245 -0.026433 -0.0282 -0.0299 -0.031833 -0.032733 -0.0338 -0.035133 -0.036467 -0.0378 -0.039133 -0.040467 -0.0414 -0.042067 -0.042733 -0.0433 -0.0433 -0.04328 -0.043 -0.043267 -0.043933 -0.0448 -0.047467 -0.049533 -0.0511 -0.052067 -0.052 -0.0526 -0.053267 -0.0546 -0.0559 -0.057 -0.057667 -0.059 -0.059267 -0.06016 -0.0618 -0.063533 -0.065533 -0.0672 -0.068533 -0.071133 -0.072 -0.0708 -0.07 -0.07 -0.070533 -0.067967 -0.065633 -0.062 -0.0574 -0.0542 -0.052733 -0.057367 -0.0626 -0.0668 -0.0668 -0.0687 -0.071567 -0.0745 -0.0765 -0.0785 -0.0805 -0.0821 -0.083367 -0.0849 -0.0867 -0.0873 -0.087733 -0.088 -0.088067 -0.088733 -0.0894 -0.089733 -0.089067 -0.0884 -0.087733 -0.087067 -0.0864 -0.085233 -0.08456 -0.0833 -0.0811 -0.079133 -0.0771 -0.075333 -0.074067 -0.073 -0.0726 -0.0726 -0.0716 -0.071533 -0.071 -0.0721 -0.072967 -0.073 -0.0722 -0.069 -0.0662 -0.0627 -0.0597 -0.0557 -0.052 -0.0484 -0.04596 -0.0434 -0.042533 -0.042467 -0.0432 -0.043933 -0.044833
-0.025133 -0.0262 -0.027267 -0.028067 -0.0296 -0.029667 -0.029 -0.029 -0.029333 -0.029867 -0.0286 -0.028133 -0.026933 -0.0252 -0.023733 -0.023333 -0.024 -0.024667 -0.025333 -0.026 -0.0268 -0.0281 -0.0284 -0.028 -0.028 -0.027733 -0.027067 -0.0268 -0.026867 -0.026867 -0.0262 -0.0264 -0.026333 -0.0262 -0.0258 -0.025067 -0.0244 -0.025 -0.025267 -0.025267 -0.0224 -0.018533 -0.015467 -0.0152 -0.017133 -0.019133 -0.0218 -0.0236 -0.0248 -0.024 -0.024 -0.024 -0.0236 -0.0236 -0.0232 -0.023067 -0.023733 -0.0248 -0.0262 -0.026933 -0.0268 -0.0272 -0.0276 -0.026533 -0.0256 -0.025067 -0.024 -0.0234 -0.0224 -0.021 -0.0192 -0.017133 -0.015933 -0.0146 -0.015 -0.014867 -0.0146 -0.013733 -0.012267 -0.0088 -0.0052667 -0.0017 0.0016667 0.0042 0.0059333 0.006 0.0054 0.0042 0.0058 0.010533 0.017733 0.027 0.036667 0.046267 0.0572 0.0688 0.0795 0.091 0.10347 0.11573 0.1298 0.14273 0.155 0.1694 0.18067 0.18913 0.196 0.2046 0.21573 0.22633 0.23733 0.2474 0.2598 0.27227 0.28447 0.2956 0.3046 0.3123 0.3178 0.32133 0.32413 0.3268 0.33013 0.33187 0.33233 0.33227 0.33213 0.3358 0.33527 0.339 0.3466 0.35467 0.36043 0.363 0.36487 0.3651 0.3624 0.3544 0.341 0.327 0.32027 0.31707 0.3152 0.31047 0.30653 0.29847 0.28873 0.27927 0.2714 0.26707 0.266 0.27 0.276 0.28156 0.2898 0.295 0.2981 0.2992 0.3004 0.3011 0.3014 0.30013 0.2976 0.2936 0.28167 0.2584 0.22387 0.19807 0.18033 0.1744 0.15993 0.13967 0.11973 0.10233 0.092067 0.0914 0.088867 0.0822 0.0736 0.0598 0.0496 0.042 0.0394 0.0343 0.026 0.0234 0.022 0.0218 0.020733 0.0214 0.0194 0.015467 0.012033 0.01 0.0084667 0.0071333 0.0058 0.0051333 0.0044667 0.0044 0.005 0.0063 0.007 0.0086 0.010733 0.0132 0.015867 0.0196 0.0248 0.031 0.038467 0.0454 0.046667 0.0444 0.038 0.029867 0.019167 0.0104 0.0044 0.0012 0.0008 0.0016 -1.4227e-16 -0.0034 -0.0083333 -0.011933 -0.0126 -0.014267 -0.016267 -0.018 -0.018 -0.018967 -0.019533 -0.02 -0.02 -0.020733 -0.021333 -0.021867 -0.021 -0.0212 -0.021067 -0.021 -0.021 -0.02156 -0.0224 -0.021333 -0.020667 -0.0206 -0.021533 -0.023967 -0.026 -0.0282 -0.0302 -0.032 -0.032733 -0.0341 -0.035467 -0.0366 -0.038067 -0.0392 -0.040467 -0.041133 -0.042 -0.0424 -0.043 -0.043 -0.043 -0.043 -0.043 -0.0434 -0.0442 -0.0468 -0.0492 -0.0511 -0.052 -0.052 -0.052133 -0.053467 -0.0546 -0.056067 -0.0572 -0.058267 -0.058933 -0.059 -0.0596 -0.06088 -0.0628 -0.0648 -0.0662 -0.0682 -0.0696 -0.0714 -0.0702 -0.07 -0.071867 -0.0718 -0.069533 -0.066933 -0.063933 -0.060333 -0.056867 -0.0566 -0.0614 -0.067433 -0.0688 -0.069733 -0.070667 -0.0732 -0.074733 -0.076333 -0.0786 -0.0798 -0.0818 -0.0828 -0.084533 -0.085867 -0.0866 -0.0876 -0.088 -0.088 -0.0886 -0.089933 -0.09 -0.089733 -0.089033 -0.088267 -0.0874 -0.085933 -0.085267 -0.084067 -0.082733 -0.0808 -0.0788 -0.0768 -0.0748 -0.073067 -0.071733 -0.071 -0.0706 -0.069667 -0.069733 -0.070533 -0.072033 -0.073467 -0.073733 -0.0729 -0.070267 -0.067533 -0.064067 -0.0614 -0.057933 -0.055433 -0.0528 -0.0506 -0.04836 -0.0468 -0.0468 -0.0468 -0.0474 -0.0484
-0.025267 -0.025933 -0.0266 -0.027533 -0.028867 -0.029 -0.029 -0.029 -0.029467 -0.029333 -0.029 -0.0284 -0.027467 -0.026133 -0.0248 -0.024667 -0.025333 -0.026 -0.026667 -0.027333 -0.0276 -0.02788 -0.028667 -0.028 -0.027333 -0.026667 -0.026 -0.0256 -0.025933 -0.0266 -0.027 -0.027333 -0.0274 -0.0274 -0.0274 -0.0268 -0.026 -0.026 -0.0254 -0.023133 -0.019467 -0.0148 -0.012533 -0.012867 -0.0154 -0.018467 -0.021133 -0.0232 -0.0236 -0.023933 -0.024 -0.022667 -0.021667 -0.0216 -0.022267 -0.022933 -0.0236 -0.024267 -0.024933 -0.0256 -0.0256 -0.0256 -0.0256 -0.024667 -0.023667 -0.0236 -0.024 -0.024 -0.0232 -0.02192 -0.019867 -0.0178 -0.016067 -0.015067 -0.015 -0.014733 -0.013733 -0.0124 -0.010133 -0.0074667 -0.0042 -0.0017 0.00148 0.0042 0.0056667 0.006 0.0054 0.0046 0.0052667 0.0096 0.017067 0.026067 0.036 0.046933 0.0588 0.0716 0.0818 0.092933 0.1056 0.11827 0.13073 0.143 0.1542 0.16587 0.176 0.18247 0.1878 0.1962 0.2084 0.2198 0.23147 0.2434 0.25573 0.2684 0.28113 0.2928 0.303 0.31164 0.31673 0.3208 0.32387 0.32647 0.3304 0.3312 0.33108 0.33093 0.33267 0.33267 0.3282 0.327 0.332 0.3404 0.34577 0.34927 0.3514 0.3511 0.3496 0.3444 0.33308 0.31987 0.3144 0.31333 0.31133 0.3062 0.3012 0.2966 0.289 0.27993 0.27227 0.2696 0.2728 0.27887 0.2852 0.2892 0.29287 0.2958 0.29808 0.2992 0.3006 0.30112 0.302 0.3008 0.2976 0.2936 0.283 0.2684 0.24592 0.2138 0.19247 0.1738 0.161 0.149 0.13328 0.11193 0.10393 0.1014 0.099 0.093 0.083067 0.067 0.0538 0.048133 0.044 0.03604 0.028067 0.0276 0.02344 0.021067 0.0182 0.0194 0.018067 0.0156 0.0127 0.01128 0.0096667 0.0084667 0.0078 0.0078 0.0071333 0.0064667 0.0058 0.00708 0.0082 0.0102 0.012467 0.0148 0.0168 0.0216 0.03288 0.042867 0.051933 0.057933 0.0584 0.0544 0.047733 0.038 0.0265 0.01392 0.0061333 0.0024 0.0010667 0.0018 0.00128 -0.0029333 -0.009 -0.011267 -0.0126 -0.0152 -0.016933 -0.017933 -0.018 -0.0183 -0.019 -0.0196 -0.02 -0.02036 -0.021467 -0.021333 -0.021267 -0.022 -0.021733 -0.021067 -0.021 -0.021667 -0.021667 -0.0204 -0.019333 -0.019 -0.0202 -0.022633 -0.025133 -0.0278 -0.0302 -0.031867 -0.0326 -0.0341 -0.03528 -0.0366 -0.037933 -0.039 -0.0402 -0.041267 -0.041933 -0.0426 -0.043 -0.043 -0.043 -0.043 -0.043 -0.043 -0.04408 -0.046133 -0.049 -0.05096 -0.051933 -0.052 -0.0528 -0.05328 -0.054467 -0.055533 -0.056933 -0.0576 -0.058267 -0.058933 -0.0596 -0.060533 -0.0622 -0.0644 -0.06608 -0.068133 -0.069 -0.06864 -0.0684 -0.0688 -0.070933 -0.0716 -0.0698 -0.068267 -0.0656 -0.063 -0.061133 -0.061467 -0.0658 -0.068767 -0.069933 -0.0712 -0.072933 -0.074 -0.0746 -0.076867 -0.078867 -0.0796 -0.08 -0.081867 -0.0832 -0.084533 -0.0862 -0.0876 -0.088 -0.088 -0.0886 -0.089667 -0.09 -0.09 -0.0897 -0.08864 -0.087533 -0.0866 -0.08508 -0.083933 -0.082467 -0.081133 -0.0796 -0.07684 -0.0748 -0.0728 -0.071067 -0.069733 -0.069 -0.068333 -0.067867 -0.0692 -0.0707 -0.07328 -0.074 -0.0729 -0.07136 -0.0686 -0.065933 -0.063267 -0.0606 -0.058767 -0.0566 -0.0546 -0.0522 -0.050867 -0.0508 -0.0508 -0.0508 -0.052
-0.025 -0.025267 -0.025933 -0.0267 -0.028233 -0.028267 -0.0285 -0.028367 -0.029 -0.029 -0.029 -0.029 -0.028367 -0.027233 -0.0267 -0.026 -0.026667 -0.026667 -0.0271 -0.027967 -0.027933 -0.0276 -0.027333 -0.026067 -0.025 -0.023933 -0.023933 -0.0242 -0.025267 -0.02704 -0.0278 -0.028667 -0.03 -0.030233 -0.0294 -0.0288 -0.0268 -0.026 -0.022867 -0.0197 -0.014833 -0.012067 -0.010733 -0.012467 -0.0148 -0.0178 -0.020467 -0.02112 -0.0217 -0.022567 -0.021267 -0.0192 -0.018933 -0.020133 -0.019767 -0.021333 -0.0216 -0.0222 -0.022867 -0.022867 -0.022667 -0.0229 -0.0223 -0.0217 -0.021633 -0.022933 -0.0245 -0.0247 -0.024067 -0.0225 -0.020533 -0.01796 -0.0165 -0.015033 -0.01448 -0.0142 -0.013067 -0.011733 -0.0097 -0.0068333 -0.0042 -0.0017 0.0012667 0.00396 0.0061 0.006 0.0054 0.0051333 0.0068667 0.011 0.0178 0.026733 0.036667 0.0482 0.0608 0.072933 0.0849 0.096267 0.10688 0.1199 0.13207 0.14293 0.1536 0.16453 0.1722 0.1797 0.1859 0.19507 0.2065 0.21757 0.23028 0.2431 0.25517 0.26853 0.2815 0.2929 0.30313 0.3111 0.31807 0.32153 0.3243 0.32713 0.3306 0.3328 0.33247 0.33316 0.33617 0.33317 0.3279 0.3266 0.3282 0.3306 0.3365 0.33883 0.33913 0.3388 0.3364 0.33073 0.323 0.31253 0.31013 0.3105 0.30817 0.3016 0.2958 0.29147 0.28804 0.2801 0.27493 0.27453 0.2766 0.28353 0.2884 0.2912 0.29413 0.2956 0.2975 0.2992 0.30053 0.3014 0.302 0.3008 0.2981 0.2943 0.2884 0.2749 0.25957 0.2356 0.20747 0.1794 0.1648 0.154 0.1408 0.12432 0.1149 0.1134 0.1096 0.1034 0.091733 0.071133 0.0566 0.051267 0.044267 0.0388 0.032733 0.030267 0.0274 0.023733 0.0208 0.0198 0.018733 0.016133 0.0134 0.012567 0.0112 0.0104 0.0104 0.011133 0.0107 0.0098333 0.0079 0.0074 0.0082 0.011533 0.0124 0.0128 0.017267 0.0232 0.0358 0.04968 0.059433 0.065033 0.0657 0.0621 0.055767 0.0452 0.0334 0.020833 0.01016 0.0039 0.0010333 0.00036667 -0.001 -0.0042667 -0.0085333 -0.0113 -0.0139 -0.0159 -0.0175 -0.017967 -0.018 -0.0183 -0.019067 -0.01972 -0.02 -0.020067 -0.02076 -0.0213 -0.021933 -0.022 -0.0224 -0.021733 -0.0217 -0.022 -0.021267 -0.0204 -0.0189 -0.0183 -0.01916 -0.0209 -0.023767 -0.027133 -0.0297 -0.031233 -0.0332 -0.0341 -0.035133 -0.03648 -0.0379 -0.039 -0.0396 -0.0411 -0.041967 -0.0426 -0.043 -0.043 -0.0436 -0.043 -0.043 -0.043 -0.0438 -0.045467 -0.048133 -0.0501 -0.051267 -0.051933 -0.0521 -0.052433 -0.05376 -0.0549 -0.056267 -0.056933 -0.0576 -0.058267 -0.058933 -0.0602 -0.0622 -0.0642 -0.0658 -0.067467 -0.068333 -0.0675 -0.0664 -0.0682 -0.0711 -0.0717 -0.0717 -0.0703 -0.0689 -0.06656 -0.0641 -0.064633 -0.065967 -0.068733 -0.070433 -0.0719 -0.0733 -0.074 -0.075267 -0.0771 -0.078233 -0.078933 -0.0797 -0.080533 -0.081933 -0.0837 -0.0855 -0.086867 -0.0876 -0.088067 -0.08872 -0.0896 -0.09 -0.09 -0.09 -0.089567 -0.08824 -0.0873 -0.085567 -0.08428 -0.0833 -0.081767 -0.0798 -0.0774 -0.0748 -0.0728 -0.0708 -0.069067 -0.067733 -0.067 -0.066533 -0.067867 -0.0694 -0.072433 -0.07376 -0.0729 -0.071867 -0.07048 -0.0678 -0.065933 -0.063267 -0.0612 -0.0592 -0.056533 -0.054867 -0.055067 -0.0548 -0.0543 -0.0541 -0.05356
-0.02468 -0.0246 -0.025267 -0.0261 -0.0274 -0.0276 -0.0281 -0.0286 -0.029 -0.029 -0.029 -0.029 -0.0289 -0.028 -0.027467 -0.027067 -0.027 -0.026667 -0.0266 -0.0266 -0.0266 -0.0265 -0.025667 -0.024067 -0.022333 -0.0212 -0.021933 -0.022967 -0.0248 -0.0272 -0.02896 -0.0302 -0.032 -0.033067 -0.032 -0.029867 -0.0276 -0.0248 -0.020867 -0.016367 -0.0126 -0.010733 -0.0106 -0.012533 -0.0148 -0.0171 -0.019 -0.019 -0.01864 -0.0186 -0.0166 -0.015067 -0.0154 -0.015467 -0.0156 -0.0168 -0.017733 -0.018733 -0.0184 -0.0192 -0.0191 -0.019067 -0.019067 -0.0189 -0.0208 -0.023267 -0.0251 -0.0254 -0.0244 -0.0228 -0.0206 -0.0178 -0.01636 -0.015 -0.0144 -0.01336 -0.0124 -0.0114 -0.0097 -0.0068 -0.0042 -0.0015333 0.0018 0.0042 0.0061 0.007 0.0063333 0.0064333 0.0086667 0.012533 0.018967 0.0274 0.037333 0.0492 0.0614 0.074267 0.085667 0.098 0.108 0.11912 0.1312 0.14193 0.15267 0.1626 0.1712 0.17907 0.1872 0.1968 0.20753 0.21887 0.23153 0.24487 0.2576 0.27087 0.28447 0.29547 0.3052 0.314 0.3214 0.32487 0.3262 0.3314 0.3346 0.3364 0.3364 0.33667 0.33953 0.34173 0.33627 0.33243 0.331 0.3306 0.33183 0.3346 0.33147 0.3279 0.32393 0.3178 0.3113 0.3066 0.3058 0.3068 0.3036 0.2966 0.29033 0.28767 0.2832 0.27757 0.2744 0.2744 0.2787 0.285 0.28973 0.29233 0.2942 0.2958 0.29713 0.29847 0.2998 0.3011 0.302 0.3008 0.29843 0.294 0.2866 0.2782 0.2628 0.24447 0.22103 0.19327 0.1654 0.15603 0.1402 0.13027 0.12353 0.1208 0.1168 0.1118 0.0974 0.0768 0.060667 0.052533 0.044 0.036667 0.035333 0.0314 0.0276 0.0242 0.021133 0.0204 0.0178 0.016 0.014133 0.013467 0.012467 0.012267 0.0136 0.014467 0.014333 0.012933 0.0112 0.0091 0.0104 0.011867 0.012 0.0122 0.017667 0.024833 0.0382 0.051933 0.063267 0.069733 0.0692 0.067267 0.0596 0.0492 0.037567 0.0262 0.0158 0.0072 0.0032 -0.00093333 -0.0027667 -0.0066 -0.0096 -0.011733 -0.015067 -0.0166 -0.018 -0.018 -0.018 -0.018067 -0.018733 -0.0194 -0.020067 -0.020733 -0.021 -0.021233 -0.021933 -0.0226 -0.0232 -0.023 -0.022733 -0.022233 -0.022067 -0.020867 -0.019133 -0.0184 -0.0186 -0.0202 -0.023 -0.026467 -0.029133 -0.0312 -0.0328 -0.034133 -0.035467 -0.0366 -0.037133 -0.0386 -0.039733 -0.040867 -0.041533 -0.0422 -0.0429 -0.043 -0.043 -0.0429 -0.0424 -0.042933 -0.043333 -0.0452 -0.0474 -0.049867 -0.050533 -0.0508 -0.0509 -0.0516 -0.052867 -0.053967 -0.055267 -0.0562 -0.057 -0.0576 -0.058267 -0.060067 -0.062 -0.064 -0.065933 -0.067267 -0.0668 -0.0661 -0.0668 -0.0688 -0.071333 -0.072667 -0.0724 -0.071833 -0.0706 -0.069 -0.06696 -0.066 -0.0666 -0.068267 -0.0702 -0.0722 -0.0742 -0.075 -0.076133 -0.077133 -0.077733 -0.0784 -0.079 -0.0798 -0.081533 -0.082867 -0.0842 -0.0858 -0.087133 -0.088467 -0.089 -0.0891 -0.09 -0.09 -0.09 -0.09 -0.089133 -0.088033 -0.086733 -0.0854 -0.084 -0.082 -0.080133 -0.077867 -0.0752 -0.0726 -0.0706 -0.0686 -0.066733 -0.065667 -0.0652 -0.0666 -0.068067 -0.070733 -0.0722 -0.072933 -0.072267 -0.0708 -0.069033 -0.067 -0.065 -0.0631 -0.0604 -0.058533 -0.0576 -0.057533 -0.0574 -0.057233 -0.0564 -0.0556
-0.024733 -0.024067 -0.0246 -0.0261 -0.026933 -0.0276 -0.0281 -0.029 -0.029 -0.029 -0.029 -0.029 -0.0289 -0.028067 -0.028 -0.027733 -0.026733 -0.026 -0.0246 -0.0246 -0.0246 -0.0245 -0.02332 -0.021533 -0.019667 -0.018667 -0.0198 -0.021633 -0.024067 -0.0268 -0.0288 -0.0308 -0.0328 -0.033733 -0.032667 -0.0308 -0.0276 -0.0236 -0.019 -0.015033 -0.0122 -0.0114 -0.0126 -0.014267 -0.0156 -0.0171 -0.0176 -0.017 -0.015667 -0.013 -0.0106 -0.0097333 -0.0102 -0.0092 -0.0076 -0.0096 -0.0116 -0.012067 -0.0132 -0.0144 -0.0151 -0.0142 -0.0148 -0.0169 -0.0204 -0.0238 -0.0251 -0.026 -0.0248 -0.0228 -0.0208 -0.0182 -0.016067 -0.014733 -0.014 -0.013067 -0.012 -0.0114 -0.0097 -0.0068667 -0.0042 -0.00086667 0.0021333 0.0042 0.0061 0.0069333 0.007 0.0077667 0.0099333 0.0144 0.019633 0.028133 0.038 0.0492 0.0614 0.0748 0.088333 0.099 0.1084 0.11893 0.12993 0.1406 0.15133 0.1606 0.17 0.17973 0.1894 0.1992 0.2098 0.2216 0.2342 0.24753 0.26087 0.2742 0.2898 0.30224 0.3124 0.32216 0.32833 0.3326 0.3362 0.33853 0.3418 0.3444 0.3426 0.3432 0.34687 0.34687 0.3444 0.34177 0.3376 0.3354 0.33717 0.334 0.3288 0.3219 0.3138 0.30887 0.30488 0.3024 0.3038 0.3028 0.29747 0.2892 0.2828 0.27913 0.27507 0.2669 0.26504 0.27013 0.27816 0.2854 0.2904 0.293 0.29476 0.29567 0.2972 0.29873 0.29967 0.30084 0.30167 0.3004 0.29777 0.29327 0.2858 0.2754 0.2634 0.249 0.22837 0.2002 0.1706 0.15337 0.14133 0.1376 0.1322 0.12248 0.11813 0.11744 0.10287 0.0824 0.066 0.05296 0.044933 0.04 0.035533 0.030733 0.02732 0.023067 0.0194 0.0184 0.016733 0.0156 0.0148 0.014133 0.0134 0.012933 0.014267 0.0162 0.017 0.01512 0.011733 0.00904 0.010333 0.012 0.0116 0.0136 0.0206 0.028167 0.038667 0.0514 0.060333 0.066333 0.068 0.065933 0.06 0.0496 0.0369 0.0254 0.017267 0.0088 0.0008 -0.0034667 -0.0054333 -0.0079333 -0.0108 -0.0132 -0.0152 -0.0166 -0.018 -0.018333 -0.0188 -0.0184 -0.018867 -0.019533 -0.0202 -0.020867 -0.021133 -0.0219 -0.02284 -0.023133 -0.02396 -0.024 -0.0234 -0.023567 -0.022733 -0.0214 -0.020467 -0.019467 -0.0194 -0.0202 -0.022533 -0.0258 -0.028467 -0.031133 -0.0332 -0.0342 -0.035333 -0.0366 -0.037267 -0.037933 -0.0392 -0.0402 -0.04044 -0.041133 -0.04208 -0.043 -0.043 -0.0429 -0.0424 -0.0436 -0.044667 -0.045333 -0.0472 -0.0492 -0.050267 -0.05 -0.05012 -0.0512 -0.0526 -0.0533 -0.05436 -0.055667 -0.05684 -0.056933 -0.0576 -0.0594 -0.06128 -0.0632 -0.0648 -0.065467 -0.066 -0.06612 -0.067 -0.0682 -0.0714 -0.072 -0.071867 -0.071167 -0.070667 -0.0694 -0.068467 -0.067467 -0.0674 -0.068933 -0.070267 -0.0722 -0.0746 -0.076267 -0.0776 -0.0778 -0.07792 -0.078133 -0.07884 -0.078933 -0.0802 -0.081533 -0.083067 -0.0848 -0.0868 -0.088333 -0.089 -0.0891 -0.089933 -0.09 -0.09 -0.09 -0.0894 -0.0887 -0.08764 -0.086333 -0.0848 -0.0828 -0.080933 -0.078533 -0.075867 -0.073 -0.07 -0.0678 -0.065933 -0.064733 -0.064 -0.065 -0.067 -0.069667 -0.071667 -0.0726 -0.072133 -0.070933 -0.0697 -0.06828 -0.066733 -0.06508 -0.0624 -0.0612 -0.0604 -0.060067 -0.0594 -0.058567 -0.057733 -0.0564
-0.025 -0.024733 -0.02468 -0.026067 -0.027167 -0.0283 -0.0289 -0.029 -0.02936 -0.029 -0.029 -0.029 -0.028933 -0.0287 -0.0281 -0.0279 -0.025833 -0.0245 -0.0233 -0.0233 -0.023933 -0.0239 -0.022733 -0.02012 -0.0189 -0.018033 -0.01832 -0.0205 -0.022733 -0.02532 -0.0275 -0.0295 -0.0314 -0.0325 -0.031333 -0.03 -0.026767 -0.0229 -0.0187 -0.0155 -0.0135 -0.0127 -0.013933 -0.014467 -0.0156 -0.0156 -0.013867 -0.0116 -0.0071 -0.003 -0.00086667 0.0003 -0.0002 -0.00084 0.0004 -0.0020333 -0.0043 -0.007 -0.0092 -0.0112 -0.0113 -0.0102 -0.0134 -0.016867 -0.0204 -0.0232 -0.0251 -0.026 -0.0248 -0.0228 -0.0208 -0.0184 -0.015867 -0.014533 -0.0135 -0.0123 -0.012 -0.01096 -0.0097333 -0.0070667 -0.0042 -0.0012 0.0014667 0.00368 0.0053667 0.0064667 0.0075 0.0089667 0.0112 0.015 0.020267 0.028533 0.0383 0.0486 0.0614 0.0754 0.088733 0.099 0.109 0.11907 0.1293 0.1393 0.1493 0.1586 0.16964 0.18 0.19 0.20063 0.2116 0.22367 0.23632 0.24943 0.26447 0.2794 0.2952 0.30927 0.32123 0.3327 0.34167 0.34284 0.34557 0.34607 0.3476 0.35 0.3506 0.34936 0.35103 0.35123 0.3507 0.351 0.3476 0.34297 0.34037 0.3353 0.3277 0.319 0.30943 0.30087 0.2982 0.2984 0.2966 0.295 0.28813 0.2808 0.2738 0.266 0.26012 0.2537 0.249 0.25933 0.2724 0.2834 0.2902 0.2929 0.29437 0.2959 0.2977 0.29837 0.29947 0.3 0.30033 0.2984 0.2962 0.29193 0.2841 0.2734 0.2614 0.2458 0.227 0.19717 0.1733 0.1541 0.14667 0.1352 0.1281 0.11717 0.11443 0.1143 0.10953 0.089267 0.071 0.0556 0.0476 0.0417 0.035767 0.031733 0.0268 0.021733 0.0188 0.0172 0.016067 0.015367 0.0146 0.013933 0.01328 0.0133 0.015867 0.017 0.0167 0.0135 0.010367 0.0093 0.0096667 0.01408 0.0149 0.018467 0.0234 0.0281 0.035333 0.04292 0.050767 0.055867 0.0586 0.0599 0.054 0.044733 0.0333 0.0214 0.012967 0.0051 -0.0001 -0.00416 -0.0063 -0.0091667 -0.0112 -0.0132 -0.015133 -0.01648 -0.0181 -0.018967 -0.019 -0.0191 -0.019767 -0.020433 -0.021 -0.021067 -0.02172 -0.0223 -0.023 -0.023433 -0.0237 -0.024 -0.024 -0.024 -0.023233 -0.0223 -0.021633 -0.020967 -0.0207 -0.0211 -0.023167 -0.0252 -0.0276 -0.030467 -0.0325 -0.0338 -0.035133 -0.03648 -0.037 -0.037033 -0.0379 -0.0386 -0.038667 -0.0402 -0.0418 -0.043 -0.04352 -0.0437 -0.043267 -0.0436 -0.0441 -0.044567 -0.0464 -0.0483 -0.048833 -0.0499 -0.0507 -0.0512 -0.051933 -0.0526 -0.053433 -0.054333 -0.0554 -0.056267 -0.056267 -0.0578 -0.0598 -0.062233 -0.0637 -0.064367 -0.065033 -0.0661 -0.067 -0.068267 -0.0702 -0.071933 -0.07128 -0.0709 -0.070033 -0.07 -0.069633 -0.0694 -0.0697 -0.0699 -0.071633 -0.073533 -0.075933 -0.076467 -0.0776 -0.0775 -0.0773 -0.0773 -0.0777 -0.078267 -0.07916 -0.0804 -0.081733 -0.0838 -0.0855 -0.087433 -0.08876 -0.089 -0.089033 -0.0893 -0.0894 -0.09 -0.089333 -0.0889 -0.087867 -0.086533 -0.0849 -0.0835 -0.08152 -0.0792 -0.076533 -0.073933 -0.0711 -0.0685 -0.06652 -0.0651 -0.064 -0.064667 -0.0665 -0.0685 -0.070067 -0.0707 -0.0713 -0.07128 -0.0704 -0.069567 -0.068233 -0.0665 -0.0644 -0.063133 -0.0622 -0.060967 -0.0602 -0.058867 -0.057967 -0.0571
-0.0252 -0.0254 -0.0252 -0.026 -0.027333 -0.029067 -0.030133 -0.03 -0.0302 -0.0298 -0.029 -0.029 -0.0288 -0.028867 -0.028867 -0.0282 -0.027267 -0.025933 -0.02452 -0.024 -0.024667 -0.0243 -0.022933 -0.0212 -0.0192 -0.0184 -0.018 -0.01912 -0.0214 -0.0238 -0.0254 -0.0268 -0.0288 -0.0292 -0.0286 -0.027333 -0.025067 -0.022 -0.018 -0.0158 -0.0142 -0.013933 -0.015133 -0.0152 -0.0152 -0.0132 -0.0085333 -0.00093333 0.0045333 0.0112 0.0128 0.0126 0.012 0.0092 0.0068 0.0037333 -0.0017333 -0.0033667 -0.0072 -0.0084 -0.0081 -0.0092 -0.0134 -0.017533 -0.0212 -0.0232 -0.02488 -0.026 -0.0248 -0.0228 -0.020733 -0.018067 -0.0158 -0.013867 -0.012533 -0.01168 -0.0114 -0.0104 -0.0092 -0.0078 -0.0051333 -0.0020667 0.0004 0.0028 0.0044 0.0059333 0.0072667 0.0092 0.0114 0.015 0.020867 0.028933 0.038267 0.04864 0.061 0.074733 0.0878 0.099533 0.10887 0.1192 0.12887 0.13807 0.1478 0.1576 0.1686 0.17988 0.1906 0.202 0.21333 0.2248 0.23753 0.25047 0.26567 0.28247 0.29967 0.3134 0.3288 0.3427 0.3494 0.352 0.3512 0.35013 0.35067 0.35267 0.3546 0.3546 0.3538 0.35273 0.35407 0.35348 0.3508 0.3454 0.34153 0.33593 0.32473 0.315 0.299 0.2906 0.2882 0.2924 0.2902 0.28444 0.2774 0.26947 0.2595 0.25267 0.24367 0.2354 0.2336 0.25033 0.26687 0.2794 0.28553 0.28927 0.2928 0.29387 0.29627 0.2968 0.2978 0.2984 0.298 0.2962 0.29312 0.2892 0.28153 0.271 0.2586 0.2432 0.2216 0.196 0.17 0.15296 0.1432 0.13053 0.1172 0.1102 0.11173 0.1208 0.114 0.094933 0.0746 0.0588 0.0462 0.039667 0.0342 0.0328 0.0286 0.0228 0.0196 0.0168 0.0156 0.015067 0.014533 0.013 0.012667 0.0129 0.015467 0.0148 0.014667 0.0104 0.0092 0.0075 0.0098 0.0142 0.0178 0.0204 0.022267 0.026933 0.032 0.038 0.042 0.044533 0.047867 0.04916 0.0462 0.0384 0.028 0.0172 0.0087333 0.0031333 -0.0014 -0.0044667 -0.0060667 -0.0087333 -0.011 -0.0131 -0.0146 -0.016 -0.0179 -0.0186 -0.019 -0.019133 -0.02 -0.0206 -0.021133 -0.0216 -0.022333 -0.023 -0.023 -0.023267 -0.023967 -0.024 -0.024 -0.024 -0.023933 -0.023267 -0.0226 -0.0222 -0.021933 -0.022433 -0.024 -0.0254 -0.02752 -0.0302 -0.031867 -0.0332 -0.0352 -0.036267 -0.036933 -0.036867 -0.0362 -0.036867 -0.0378 -0.039533 -0.041 -0.0426 -0.0436 -0.0436 -0.043067 -0.042667 -0.042667 -0.0426 -0.0444 -0.046 -0.0478 -0.049867 -0.050933 -0.051 -0.0512 -0.051867 -0.052533 -0.053267 -0.054733 -0.0546 -0.054933 -0.056133 -0.0588 -0.061133 -0.062867 -0.0636 -0.0646 -0.066333 -0.068 -0.0694 -0.0713 -0.0724 -0.0716 -0.071 -0.0704 -0.07 -0.07 -0.070267 -0.070933 -0.0714 -0.0726 -0.074533 -0.0768 -0.0768 -0.076667 -0.076667 -0.0762 -0.076333 -0.076867 -0.0776 -0.0784 -0.07956 -0.0808 -0.082533 -0.084033 -0.0862 -0.087867 -0.088933 -0.089 -0.089 -0.089 -0.0894 -0.088667 -0.088667 -0.0874 -0.086733 -0.086067 -0.0846 -0.082467 -0.0802 -0.078 -0.0752 -0.0721 -0.0696 -0.0674 -0.0661 -0.065 -0.065333 -0.066 -0.0672 -0.068533 -0.069933 -0.0706 -0.071 -0.0709 -0.069533 -0.0684 -0.0669 -0.065733 -0.064467 -0.063933 -0.062067 -0.060733 -0.0592 -0.057933 -0.0574
-0.026 -0.026 -0.026 -0.026933 -0.028267 -0.0296 -0.030667 -0.031333 -0.0314 -0.030067 -0.028733 -0.028 -0.028 -0.028 -0.0286 -0.0294 -0.029067 -0.0272 -0.025733 -0.0254 -0.026 -0.0263 -0.02512 -0.0232 -0.02096 -0.019067 -0.0184 -0.018933 -0.020267 -0.0222 -0.023533 -0.024867 -0.0256 -0.0252 -0.0252 -0.024 -0.021733 -0.0194 -0.0174 -0.016067 -0.015067 -0.015 -0.015667 -0.016333 -0.0164 -0.013733 -0.0060667 0.0064 0.018267 0.026933 0.0306 0.02604 0.023 0.016 0.0089333 0.0039333 -0.0008 -0.0047 -0.00648 -0.0084 -0.00864 -0.010067 -0.0154 -0.018867 -0.0212 -0.0232 -0.024933 -0.0256 -0.0244 -0.0228 -0.0208 -0.0182 -0.0162 -0.0142 -0.0134 -0.012067 -0.011067 -0.0104 -0.0094667 -0.0081333 -0.0062 -0.0035333 -0.0012 0.0008 0.0032 0.0048667 0.0068 0.0092 0.011533 0.0154 0.021133 0.029133 0.0384 0.048933 0.060267 0.0734 0.0862 0.097867 0.1092 0.11973 0.12873 0.1374 0.1466 0.15727 0.1686 0.17993 0.1916 0.2036 0.21427 0.22527 0.2378 0.24993 0.26493 0.2834 0.29953 0.3152 0.3308 0.34592 0.35307 0.3556 0.35693 0.35593 0.3552 0.35493 0.35527 0.3546 0.35233 0.35033 0.352 0.352 0.348 0.3414 0.33607 0.32907 0.3186 0.3026 0.2866 0.2798 0.2826 0.2846 0.281 0.2734 0.2654 0.2568 0.2435 0.23248 0.22633 0.2154 0.22007 0.2398 0.25833 0.271 0.2762 0.2726 0.27992 0.28533 0.29053 0.2942 0.2954 0.29524 0.295 0.293 0.2898 0.28513 0.2774 0.2666 0.25427 0.238 0.21253 0.18453 0.1638 0.15047 0.1368 0.1228 0.1124 0.10573 0.11 0.1156 0.1126 0.0944 0.0726 0.0544 0.042333 0.033933 0.031267 0.031 0.02904 0.023067 0.0188 0.0164 0.014733 0.014 0.013067 0.011733 0.0116 0.0109 0.012733 0.0116 0.0093333 0.0073333 0.008 0.00944 0.011 0.0158 0.019133 0.021133 0.0212 0.023467 0.029133 0.034 0.035067 0.035733 0.0376 0.0392 0.037867 0.0316 0.0228 0.013133 0.005 0.00046667 -0.0025333 -0.0046 -0.0054 -0.00764 -0.010733 -0.01308 -0.0142 -0.0156 -0.01696 -0.017933 -0.0186 -0.019267 -0.02 -0.0206 -0.021667 -0.022333 -0.023 -0.023 -0.023 -0.023 -0.0233 -0.024 -0.024 -0.024 -0.024 -0.0234 -0.0234 -0.0234 -0.0234 -0.023767 -0.025267 -0.0266 -0.0282 -0.0302 -0.0316 -0.0332 -0.034867 -0.0356 -0.036267 -0.036467 -0.035 -0.035133 -0.0368 -0.0382 -0.0398 -0.0418 -0.0432 -0.044 -0.043667 -0.0424 -0.041333 -0.041333 -0.0432 -0.0448 -0.047133 -0.0492 -0.050267 -0.0506 -0.0502 -0.0508 -0.051467 -0.052467 -0.0534 -0.05316 -0.0536 -0.055467 -0.058133 -0.0602 -0.061933 -0.062933 -0.0642 -0.066867 -0.0692 -0.0702 -0.07196 -0.072933 -0.0722 -0.07092 -0.070733 -0.07 -0.070667 -0.071 -0.0716 -0.072267 -0.073267 -0.0752 -0.0756 -0.0756 -0.0756 -0.075333 -0.074667 -0.0746 -0.075533 -0.076933 -0.0776 -0.078533 -0.079867 -0.0812 -0.083367 -0.0852 -0.0872 -0.088667 -0.089 -0.089 -0.089 -0.088667 -0.088 -0.087333 -0.087 -0.087 -0.086733 -0.086067 -0.0842 -0.0822 -0.07984 -0.076667 -0.07384 -0.070867 -0.0684 -0.06704 -0.066067 -0.066 -0.066 -0.066 -0.0672 -0.069267 -0.069933 -0.0706 -0.0709 -0.06972 -0.0684 -0.0669 -0.06608 -0.0654 -0.064067 -0.062733 -0.0608 -0.059067 -0.058067 -0.0574
-0.026467 -0.0267 -0.0271 -0.0278 -0.028933 -0.0302 -0.0317 -0.031967 -0.0314 -0.0299 -0.028767 -0.0274 -0.028 -0.028 -0.029267 -0.030367 -0.029967 -0.0285 -0.026467 -0.0267 -0.0267 -0.0274 -0.0265 -0.024933 -0.0224 -0.019733 -0.017733 -0.0187 -0.020233 -0.02204 -0.023133 -0.023167 -0.0229 -0.0225 -0.0212 -0.0212 -0.0199 -0.0181 -0.0174 -0.0169 -0.016433 -0.016333 -0.016933 -0.017433 -0.0169 -0.0145 -0.0030333 0.0148 0.0294 0.039467 0.045133 0.0406 0.033 0.0206 0.0122 0.0040667 -0.00053333 -0.0043 -0.0062 -0.0077667 -0.0103 -0.012733 -0.0162 -0.0197 -0.0219 -0.023267 -0.0251 -0.0257 -0.025067 -0.023367 -0.0215 -0.0189 -0.0168 -0.0148 -0.01384 -0.0127 -0.012433 -0.011733 -0.0108 -0.0094667 -0.0075333 -0.0047 -0.0025 -0.00016 0.0025 0.0042333 0.0061333 0.0089333 0.011933 0.016 0.0217 0.029767 0.039733 0.0499 0.060233 0.072867 0.085633 0.096767 0.1079 0.1179 0.12737 0.13748 0.1468 0.15793 0.16956 0.1809 0.1929 0.20433 0.2145 0.22523 0.23533 0.24643 0.26253 0.2794 0.2949 0.3111 0.32633 0.3399 0.34973 0.355 0.3564 0.35707 0.35433 0.3521 0.35123 0.34896 0.34667 0.34533 0.3448 0.34283 0.3374 0.3314 0.32393 0.31257 0.2989 0.2854 0.2738 0.27287 0.2735 0.2733 0.2634 0.2565 0.2479 0.23873 0.232 0.22177 0.21864 0.2089 0.21123 0.22973 0.2465 0.2559 0.2546 0.2515 0.25637 0.26496 0.2726 0.2826 0.291 0.2918 0.291 0.2884 0.2847 0.27917 0.26732 0.2563 0.24343 0.22192 0.19807 0.17463 0.1571 0.14163 0.1279 0.1145 0.1013 0.096567 0.0998 0.108 0.1044 0.0888 0.0685 0.050567 0.03728 0.0283 0.025833 0.0266 0.0253 0.021733 0.01916 0.0166 0.015467 0.012867 0.0124 0.011067 0.0097333 0.0094333 0.0079333 0.0076 0.0074 0.0060667 0.0072667 0.01 0.013 0.0152 0.017 0.016467 0.017733 0.0207 0.027167 0.02912 0.028167 0.029267 0.0316 0.033233 0.030867 0.0256 0.0185 0.010567 0.0037333 -0.0012 -0.0038667 -0.0053333 -0.0066 -0.0087333 -0.010767 -0.0125 -0.0142 -0.015533 -0.0164 -0.017267 -0.0186 -0.0191 -0.02 -0.0206 -0.022 -0.022267 -0.022933 -0.023 -0.023 -0.023 -0.023 -0.023367 -0.024 -0.023533 -0.024 -0.024 -0.024 -0.024 -0.02452 -0.0248 -0.025933 -0.02668 -0.0282 -0.0302 -0.030867 -0.0317 -0.032833 -0.034133 -0.0351 -0.035133 -0.033667 -0.0341 -0.0355 -0.037533 -0.0391 -0.0405 -0.0421 -0.0433 -0.043033 -0.04232 -0.0411 -0.041967 -0.041933 -0.0434 -0.046467 -0.048533 -0.0496 -0.05 -0.05 -0.0504 -0.051067 -0.05176 -0.0526 -0.053067 -0.05372 -0.0552 -0.057467 -0.059533 -0.0616 -0.062267 -0.0642 -0.0668 -0.0692 -0.070533 -0.0714 -0.072267 -0.071733 -0.0709 -0.070067 -0.07016 -0.071 -0.071433 -0.0717 -0.072 -0.072767 -0.0739 -0.075 -0.075 -0.075 -0.0745 -0.074033 -0.0746 -0.0755 -0.076267 -0.0776 -0.0781 -0.079233 -0.080533 -0.0828 -0.0852 -0.0872 -0.089 -0.089 -0.089 -0.0889 -0.088267 -0.0874 -0.0871 -0.0877 -0.087667 -0.0879 -0.087433 -0.086133 -0.0837 -0.081367 -0.078033 -0.0747 -0.071533 -0.069467 -0.0679 -0.066733 -0.0654 -0.0651 -0.0653 -0.065867 -0.0678 -0.069267 -0.069867 -0.0705 -0.069867 -0.06852 -0.0669 -0.065933 -0.06528 -0.0639 -0.062533 -0.0609 -0.0595 -0.058033 -0.05696
-0.027067 -0.027267 -0.027933 -0.02864 -0.0296 -0.0306 -0.03156 -0.032 -0.031267 -0.029967 -0.0288 -0.028 -0.0281 -0.0286 -0.029733 -0.030667 -0.029667 -0.028333 -0.026933 -0.027067 -0.027467 -0.028 -0.027267 -0.0254 -0.0226 -0.0192 -0.017733 -0.018367 -0.0206 -0.0224 -0.0228 -0.022067 -0.021533 -0.020967 -0.02 -0.02 -0.019367 -0.018667 -0.0184 -0.0183 -0.0178 -0.017667 -0.018167 -0.018133 -0.017467 -0.01292 -0.0022 0.0186 0.03424 0.0464 0.054467 0.0537 0.0438 0.030933 0.0187 0.009 0.0022 -0.0028 -0.0048 -0.0076667 -0.010667 -0.0146 -0.017867 -0.020433 -0.0226 -0.023933 -0.0251 -0.026 -0.025733 -0.024133 -0.022933 -0.020133 -0.017067 -0.015 -0.0142 -0.01408 -0.0138 -0.013067 -0.0122 -0.0108 -0.0085333 -0.0059333 -0.0032 -0.001 0.00144 0.0036 0.0058 0.0084667 0.012533 0.016933 0.0233 0.0318 0.0414 0.0514 0.0616 0.0732 0.0848 0.0956 0.1056 0.11528 0.1252 0.1362 0.14764 0.1588 0.1712 0.18196 0.1938 0.20533 0.21507 0.225 0.23433 0.24413 0.2577 0.2752 0.28907 0.30373 0.317 0.3304 0.3404 0.34607 0.3502 0.3494 0.34953 0.34727 0.3454 0.3438 0.3406 0.33727 0.3346 0.33167 0.32487 0.31953 0.3116 0.2996 0.28867 0.27033 0.2644 0.2622 0.26197 0.2558 0.2464 0.24375 0.2407 0.2294 0.22827 0.23093 0.22593 0.21433 0.2108 0.22233 0.23433 0.2412 0.2366 0.23033 0.2314 0.2354 0.2466 0.2626 0.2774 0.2869 0.2862 0.28307 0.2781 0.2706 0.2572 0.23812 0.222 0.2042 0.1822 0.16387 0.14987 0.13107 0.11233 0.1014 0.088067 0.0856 0.088867 0.096333 0.0948 0.080467 0.063567 0.0472 0.0352 0.026067 0.024733 0.0242 0.0246 0.0214 0.0196 0.0182 0.0166 0.0138 0.012233 0.0116 0.0104 0.0093667 0.0084 0.00815 0.007 0.007 0.0084 0.0104 0.013 0.0142 0.014467 0.0134 0.0148 0.019233 0.0258 0.0278 0.0258 0.023267 0.025133 0.026267 0.024867 0.020067 0.0146 0.0088 0.0030667 -0.0024667 -0.0052 -0.007 -0.0082333 -0.0094667 -0.0108 -0.012133 -0.013467 -0.0148 -0.0159 -0.0172 -0.018267 -0.019067 -0.02 -0.020733 -0.021933 -0.022 -0.022267 -0.022967 -0.023 -0.023 -0.023 -0.023 -0.023267 -0.023 -0.023067 -0.023733 -0.024 -0.0242 -0.025 -0.02532 -0.0262 -0.027 -0.02724 -0.0286 -0.028667 -0.029533 -0.030333 -0.0318 -0.033667 -0.0338 -0.033267 -0.0342 -0.0356 -0.036867 -0.038733 -0.039733 -0.041067 -0.04224 -0.0424 -0.0418 -0.0408 -0.0406 -0.041267 -0.0422 -0.0454 -0.047867 -0.049033 -0.0498 -0.05 -0.050067 -0.050733 -0.0514 -0.052067 -0.052733 -0.053933 -0.055133 -0.0568 -0.059 -0.060967 -0.0622 -0.063867 -0.066133 -0.0682 -0.07 -0.0718 -0.0718 -0.0714 -0.0705 -0.0698 -0.07 -0.0704 -0.071 -0.071533 -0.0721 -0.072267 -0.0736 -0.075067 -0.075133 -0.075 -0.074233 -0.0744 -0.0748 -0.076 -0.0762 -0.077267 -0.077933 -0.0786 -0.0802 -0.0823 -0.085 -0.0872 -0.0888 -0.089733 -0.088533 -0.088833 -0.087933 -0.0874 -0.0871 -0.088 -0.088467 -0.088833 -0.088 -0.0868 -0.0848 -0.082067 -0.079 -0.075667 -0.072333 -0.0704 -0.0687 -0.0668 -0.065067 -0.063667 -0.0636 -0.064533 -0.0658 -0.0672 -0.068533 -0.069867 -0.069067 -0.068 -0.066933 -0.066267 -0.0654 -0.063933 -0.062867 -0.061533 -0.06012 -0.0584 -0.0568
-0.026933 -0.027933 -0.028 -0.028933 -0.029933 -0.0306 -0.031667 -0.032 -0.0314 -0.030633 -0.029 -0.0284 -0.0281 -0.029 -0.0296 -0.029733 -0.028733 -0.0274 -0.026267 -0.026933 -0.0276 -0.028 -0.02764 -0.025667 -0.02284 -0.019133 -0.0184 -0.019033 -0.021533 -0.0236 -0.023733 -0.023067 -0.0218 -0.021633 -0.0204 -0.0204 -0.0207 -0.02104 -0.020533 -0.0203 -0.0194 -0.0194 -0.018833 -0.019 -0.0184 -0.014533 -0.0018667 0.019 0.035 0.048667 0.0582 0.0597 0.054 0.0412 0.0287 0.015733 0.007 -0.0004 -0.005 -0.0087333 -0.012 -0.01588 -0.019067 -0.021767 -0.0232 -0.0246 -0.0251 -0.026 -0.026 -0.025467 -0.023867 -0.0212 -0.018533 -0.016533 -0.0158 -0.0154 -0.015333 -0.0148 -0.0142 -0.012133 -0.0096 -0.0072667 -0.0039333 -0.0018 0.00046667 0.0034667 0.0062 0.0091333 0.0128 0.018 0.0253 0.0342 0.0434 0.053 0.063267 0.074 0.084 0.093333 0.1026 0.1122 0.12287 0.1342 0.14607 0.15927 0.1728 0.184 0.19433 0.2056 0.21573 0.22507 0.2338 0.24347 0.25647 0.2692 0.2816 0.29273 0.30353 0.316 0.3272 0.3318 0.3346 0.337 0.3378 0.33793 0.33753 0.3358 0.33393 0.33027 0.325 0.31833 0.313 0.3078 0.3016 0.29027 0.2804 0.26767 0.257 0.253 0.25063 0.2428 0.2324 0.23325 0.2412 0.243 0.2446 0.2476 0.24073 0.22527 0.2146 0.2194 0.22527 0.2306 0.2286 0.22207 0.2144 0.2086 0.2152 0.2402 0.2658 0.27988 0.27987 0.2768 0.2681 0.2556 0.2384 0.2164 0.1964 0.179 0.16673 0.15707 0.1444 0.12373 0.1024 0.089 0.081133 0.0768 0.0794 0.083667 0.083 0.0706 0.058233 0.047067 0.0388 0.0284 0.024333 0.023133 0.02372 0.0218 0.0204 0.019467 0.017467 0.0142 0.013567 0.0134 0.0128 0.012033 0.010867 0.00975 0.0078 0.0082667 0.0096 0.01124 0.0132 0.0134 0.012333 0.011667 0.0128 0.016567 0.023733 0.025 0.021667 0.02 0.0206 0.018933 0.016267 0.013 0.0094 0.0060667 0.0016 -0.0031333 -0.0061333 -0.0082 -0.0089 -0.00984 -0.010667 -0.0122 -0.013733 -0.014533 -0.01512 -0.016 -0.0172 -0.018533 -0.019867 -0.0206 -0.021267 -0.021933 -0.022 -0.0223 -0.023 -0.023 -0.023 -0.023 -0.022867 -0.023 -0.023 -0.023 -0.023267 -0.023933 -0.0246 -0.025667 -0.026 -0.0266 -0.0266 -0.026267 -0.0256 -0.0262 -0.02796 -0.0298 -0.031933 -0.0326 -0.0326 -0.0342 -0.035867 -0.0366 -0.036867 -0.037533 -0.0388 -0.040533 -0.041533 -0.041 -0.039667 -0.039 -0.0402 -0.0422 -0.0442 -0.0468 -0.048367 -0.049533 -0.0498 -0.0502 -0.050867 -0.051533 -0.0522 -0.053333 -0.054467 -0.055267 -0.055933 -0.0578 -0.059633 -0.0618 -0.0632 -0.065467 -0.0678 -0.0694 -0.0708 -0.071 -0.069933 -0.06888 -0.068 -0.0692 -0.070267 -0.070933 -0.071 -0.0721 -0.072933 -0.0736 -0.074933 -0.075933 -0.0754 -0.075567 -0.075067 -0.0754 -0.076 -0.0762 -0.077 -0.077267 -0.077933 -0.0798 -0.0823 -0.085133 -0.0872 -0.088267 -0.0886 -0.088 -0.088167 -0.087667 -0.087 -0.0871 -0.087933 -0.0886 -0.088167 -0.088 -0.0868 -0.0848 -0.08244 -0.079133 -0.0758 -0.072933 -0.070267 -0.0678 -0.066533 -0.0644 -0.062333 -0.062 -0.0632 -0.0638 -0.0658 -0.0672 -0.0692 -0.06872 -0.067467 -0.0668 -0.065667 -0.064867 -0.064067 -0.062733 -0.0614 -0.060067 -0.058733 -0.0568
-0.0271 -0.027733 -0.0284 -0.029067 -0.029733 -0.0308 -0.032 -0.032 -0.031367 -0.0304 -0.029 -0.029 -0.0285 -0.029 -0.029 -0.029433 -0.028533 -0.0273 -0.026767 -0.026567 -0.0269 -0.0271 -0.0271 -0.025533 -0.0234 -0.020467 -0.021033 -0.0218 -0.023333 -0.0247 -0.024633 -0.023967 -0.0233 -0.0227 -0.0224 -0.022333 -0.0225 -0.0234 -0.02336 -0.0223 -0.0214 -0.020133 -0.019467 -0.0197 -0.0193 -0.017033 -0.0012333 0.0163 0.0301 0.043333 0.052333 0.0582 0.058 0.0494 0.0355 0.023067 0.0138 0.0057 -0.0039667 -0.0106 -0.0142 -0.017667 -0.02036 -0.0221 -0.0232 -0.0246 -0.0255 -0.026 -0.026667 -0.0263 -0.024533 -0.0232 -0.020967 -0.0192 -0.0179 -0.0167 -0.016667 -0.016733 -0.0153 -0.013467 -0.010933 -0.0082 -0.0052667 -0.0019333 0.0003 0.0036667 0.0067 0.0101 0.014533 0.0206 0.0273 0.0362 0.0448 0.0541 0.063933 0.0734 0.082867 0.090433 0.0995 0.10903 0.1208 0.1324 0.144 0.15793 0.17236 0.18477 0.19457 0.205 0.21733 0.22667 0.2355 0.2438 0.25573 0.26527 0.2756 0.2844 0.29397 0.3021 0.3112 0.31527 0.3183 0.321 0.32233 0.3237 0.32487 0.32524 0.32453 0.319 0.3126 0.3062 0.3035 0.3003 0.29453 0.28767 0.2774 0.2698 0.25937 0.2529 0.2479 0.24207 0.2408 0.2397 0.24867 0.2568 0.2609 0.2585 0.24672 0.22767 0.2173 0.2177 0.2205 0.2258 0.2253 0.2229 0.2125 0.2026 0.2069 0.2127 0.2368 0.256 0.26653 0.2573 0.2439 0.2281 0.2102 0.19373 0.1801 0.1661 0.15703 0.15123 0.1375 0.1181 0.1046 0.094 0.0859 0.0749 0.0757 0.0753 0.073033 0.0655 0.0552 0.047533 0.0395 0.0321 0.028367 0.0253 0.0229 0.0218 0.01996 0.019033 0.017233 0.016 0.0154 0.0154 0.0149 0.0136 0.012733 0.0108 0.0096 0.0091333 0.0109 0.0121 0.0132 0.012 0.011 0.010333 0.010867 0.0144 0.019067 0.02172 0.0186 0.017733 0.0158 0.012533 0.0098667 0.0076 0.0055667 0.0043667 0.0008 -0.0018667 -0.0049667 -0.0069 -0.0081 -0.0086667 -0.0102 -0.0122 -0.014067 -0.014733 -0.0154 -0.016 -0.01668 -0.018133 -0.019467 -0.0204 -0.021067 -0.021733 -0.022 -0.0223 -0.023 -0.023 -0.023 -0.022933 -0.02228 -0.022533 -0.0223 -0.0224 -0.023067 -0.0233 -0.0233 -0.0197 -0.017967 -0.0171 -0.018233 -0.0193 -0.0201 -0.0211 -0.0239 -0.0278 -0.0298 -0.0306 -0.032467 -0.0339 -0.033367 -0.0338 -0.033267 -0.0348 -0.0368 -0.038667 -0.039767 -0.0396 -0.039 -0.039 -0.04004 -0.0415 -0.043067 -0.045 -0.0481 -0.048967 -0.0496 -0.0504 -0.051067 -0.051733 -0.0524 -0.053067 -0.05376 -0.054633 -0.055733 -0.0571 -0.0585 -0.0605 -0.0625 -0.0645 -0.0665 -0.068467 -0.0698 -0.070867 -0.069533 -0.0686 -0.068 -0.06816 -0.069367 -0.070033 -0.0708 -0.072067 -0.072733 -0.0737 -0.074367 -0.075467 -0.076 -0.076 -0.075733 -0.075667 -0.076 -0.0762 -0.0764 -0.0766 -0.077267 -0.07832 -0.080867 -0.083533 -0.0854 -0.0866 -0.087033 -0.0873 -0.087233 -0.087 -0.087 -0.087467 -0.087733 -0.088 -0.088 -0.087567 -0.0867 -0.0845 -0.081967 -0.079067 -0.0761 -0.073433 -0.070333 -0.0678 -0.065867 -0.06292 -0.0613 -0.060867 -0.061 -0.0618 -0.0638 -0.0658 -0.0677 -0.068167 -0.067267 -0.0665 -0.065233 -0.06452 -0.063433 -0.062533 -0.0612 -0.059867 -0.058533 -0.0572
-0.027267 -0.028267 -0.028933 -0.0294 -0.030067 -0.030733 -0.03156 -0.032 -0.0314 -0.030133 -0.029467 -0.0292 -0.029 -0.029 -0.028667 -0.0288 -0.027933 -0.027267 -0.0268 -0.026133 -0.026133 -0.0259 -0.026 -0.0252 -0.024333 -0.023667 -0.024067 -0.0254 -0.025467 -0.026133 -0.0258 -0.024867 -0.023533 -0.02268 -0.0226 -0.0234 -0.024067 -0.024733 -0.0248 -0.024067 -0.022733 -0.021133 -0.019933 -0.0198 -0.0198 -0.0154 -0.0079333 0.0079333 0.022733 0.0328 0.0428 0.052133 0.055467 0.0516 0.040467 0.029133 0.018 0.0071333 -0.0035333 -0.0112 -0.016467 -0.019133 -0.0212 -0.0222 -0.023467 -0.0248 -0.026067 -0.026733 -0.027 -0.027 -0.0258 -0.0248 -0.0232 -0.0212 -0.0192 -0.01808 -0.018 -0.0176 -0.016267 -0.014933 -0.0122 -0.0091333 -0.0064667 -0.0029333 0.0004 0.0035333 0.0068667 0.0108 0.015867 0.022133 0.0291 0.037533 0.0462 0.054733 0.064067 0.073067 0.0816 0.0896 0.0976 0.1072 0.1178 0.1298 0.14212 0.1556 0.1704 0.1832 0.19493 0.20627 0.2178 0.229 0.237 0.24424 0.2534 0.2616 0.2692 0.2782 0.28607 0.293 0.299 0.3002 0.30333 0.30467 0.3056 0.3072 0.3098 0.3114 0.3106 0.3078 0.2998 0.2956 0.29327 0.29433 0.2886 0.28113 0.27647 0.2684 0.26373 0.25907 0.2574 0.2558 0.2482 0.24847 0.2504 0.25807 0.26127 0.256 0.24687 0.23153 0.21747 0.21413 0.2148 0.21953 0.22287 0.22128 0.212 0.2018 0.1906 0.1938 0.2088 0.22773 0.236 0.2278 0.21427 0.19893 0.18667 0.17427 0.16613 0.15547 0.1472 0.13887 0.12753 0.1152 0.10507 0.0992 0.0944 0.084267 0.076933 0.0738 0.0706 0.0606 0.05152 0.0434 0.037333 0.0316 0.029 0.025667 0.022733 0.0214 0.0196 0.018 0.016733 0.016067 0.016 0.015733 0.015067 0.0138 0.0124 0.0108 0.0093333 0.0102 0.0116 0.0118 0.0114 0.0104 0.0097333 0.0090667 0.0108 0.013 0.0166 0.0184 0.0168 0.0144 0.0124 0.0096 0.0065333 0.0044 0.0026667 0.0017333 0.0010667 -0.001 -0.004 -0.0061333 -0.0069333 -0.0078 -0.0102 -0.011933 -0.0132 -0.014267 -0.014933 -0.0156 -0.0166 -0.0178 -0.019067 -0.019733 -0.0204 -0.021067 -0.022 -0.022 -0.0226 -0.022667 -0.0228 -0.0224 -0.022 -0.022 -0.022 -0.022 -0.0224 -0.022133 -0.017467 -0.0094 -0.0016667 -0.00033333 -0.0024 -0.0076667 -0.011933 -0.015 -0.0186 -0.022533 -0.027067 -0.0292 -0.031467 -0.033467 -0.0324 -0.0304 -0.0302 -0.031867 -0.034533 -0.037 -0.038467 -0.039133 -0.03976 -0.0398 -0.041 -0.0414 -0.0422 -0.0442 -0.04668 -0.0486 -0.048933 -0.05 -0.051 -0.0516 -0.052133 -0.053 -0.053267 -0.053933 -0.054933 -0.056267 -0.058 -0.059933 -0.061267 -0.06312 -0.0652 -0.067467 -0.069867 -0.0704 -0.0694 -0.067967 -0.0676 -0.0678 -0.0686 -0.069867 -0.070533 -0.0718 -0.073 -0.073 -0.0738 -0.074867 -0.075533 -0.07568 -0.0756 -0.075667 -0.075933 -0.0762 -0.0766 -0.0761 -0.077 -0.0776 -0.0796 -0.081733 -0.083067 -0.0844 -0.085667 -0.086333 -0.0868 -0.087 -0.087 -0.0878 -0.0878 -0.0878 -0.0874 -0.086733 -0.085933 -0.083667 -0.0812 -0.078467 -0.075667 -0.0732 -0.0702 -0.067667 -0.0652 -0.0622 -0.0602 -0.058867 -0.059533 -0.0604 -0.061933 -0.0638 -0.0658 -0.067 -0.066333 -0.065667 -0.0644 -0.063667 -0.062867 -0.061933 -0.061267 -0.0602 -0.058867 -0.057533
-0.027933 -0.0286 -0.0286 -0.029267 -0.029933 -0.0306 -0.031267 -0.031933 -0.0314 -0.0308 -0.030133 -0.029867 -0.0292 -0.029 -0.0284 -0.028 -0.028 -0.028 -0.027733 -0.027067 -0.0264 -0.0259 -0.02544 -0.0264 -0.0264 -0.0264 -0.026733 -0.0274 -0.027067 -0.027 -0.026067 -0.024733 -0.0234 -0.022333 -0.022 -0.0228 -0.0242 -0.025733 -0.025867 -0.025 -0.0232 -0.021267 -0.020067 -0.019067 -0.019 -0.015933 -0.0089333 0.0014 0.012067 0.022067 0.0332 0.0466 0.057067 0.054667 0.043 0.0304 0.019333 0.0078 -0.0037333 -0.0116 -0.0168 -0.0192 -0.0212 -0.0222 -0.02384 -0.025067 -0.0262 -0.026867 -0.027 -0.02712 -0.027067 -0.0264 -0.0252 -0.023533 -0.0222 -0.020467 -0.019467 -0.019 -0.018 -0.0162 -0.014067 -0.011 -0.007 -0.0033333 0.0004 0.0040667 0.0068 0.011333 0.017 0.0236 0.0311 0.03828 0.0458 0.054 0.063133 0.072133 0.0808 0.0888 0.0968 0.106 0.11633 0.1282 0.14047 0.15347 0.168 0.18147 0.1938 0.2058 0.2178 0.22913 0.2374 0.24487 0.25153 0.2588 0.2672 0.27487 0.2822 0.2874 0.29107 0.2932 0.2906 0.2896 0.2904 0.29312 0.295 0.2974 0.29887 0.2962 0.2904 0.28587 0.2852 0.2878 0.2858 0.27713 0.2664 0.26347 0.2648 0.265 0.26753 0.26753 0.2602 0.25113 0.24813 0.2522 0.24833 0.24367 0.2354 0.22847 0.21947 0.2108 0.20827 0.21027 0.2122 0.2118 0.2088 0.1982 0.1862 0.17787 0.1856 0.19507 0.1984 0.1946 0.184 0.17267 0.16427 0.15693 0.15193 0.1444 0.1372 0.1302 0.1188 0.10747 0.10213 0.0988 0.0924 0.086733 0.079 0.071667 0.064 0.0554 0.046733 0.039067 0.0348 0.0312 0.026533 0.023 0.021667 0.020333 0.0184 0.016667 0.015667 0.0156 0.015333 0.014667 0.0134 0.012333 0.011667 0.0104 0.010667 0.011667 0.0124 0.0118 0.010467 0.0104 0.0094 0.0098667 0.010533 0.01112 0.0148 0.0156 0.014 0.0126 0.0108 0.0081333 0.0054667 0.0028 0.0013333 0.001 0.001 -0.00046667 -0.0031333 -0.0052 -0.0062667 -0.0072667 -0.0098 -0.010867 -0.011867 -0.0132 -0.014267 -0.014933 -0.0162 -0.017933 -0.018867 -0.0196 -0.020267 -0.020933 -0.0216 -0.022 -0.022 -0.022 -0.022 -0.022 -0.022 -0.022 -0.022 -0.022 -0.021333 -0.017667 -0.0074 0.0052667 0.013933 0.0164 0.0128 0.0064667 -0.0002 -0.0066 -0.012933 -0.0172 -0.0244 -0.0292 -0.030667 -0.031333 -0.03 -0.0274 -0.0278 -0.0304 -0.0338 -0.034867 -0.0362 -0.0382 -0.039267 -0.040267 -0.041 -0.041667 -0.042333 -0.0442 -0.0462 -0.047533 -0.0476 -0.0492 -0.050867 -0.0516 -0.052267 -0.052933 -0.053 -0.053267 -0.054133 -0.0556 -0.0572 -0.058867 -0.0608 -0.062533 -0.0642 -0.0668 -0.068533 -0.069533 -0.069 -0.068633 -0.067133 -0.067 -0.067933 -0.069267 -0.0706 -0.071533 -0.072867 -0.073 -0.073267 -0.074267 -0.0756 -0.075333 -0.075 -0.075 -0.075267 -0.076 -0.0762 -0.076 -0.076733 -0.0772 -0.078533 -0.079867 -0.0812 -0.082533 -0.083867 -0.0852 -0.086267 -0.086933 -0.087 -0.087 -0.087 -0.087 -0.086333 -0.086 -0.0854 -0.083133 -0.080733 -0.0782 -0.075533 -0.072867 -0.0702 -0.067533 -0.064533 -0.0618 -0.0594 -0.057733 -0.0576 -0.0592 -0.060867 -0.0622 -0.0642 -0.065533 -0.065 -0.064333 -0.064 -0.0634 -0.062333 -0.0618 -0.061 -0.060067 -0.058733 -0.0574
-0.0276 -0.028 -0.028 -0.0291 -0.029967 -0.030667 -0.0315 -0.031967 -0.032067 -0.0313 -0.0307 -0.030267 -0.0296 -0.028933 -0.02828 -0.028 -0.028 -0.028667 -0.0289 -0.028433 -0.027133 -0.0269 -0.026533 -0.027433 -0.0277 -0.0277 -0.02768 -0.0275 -0.027033 -0.025667 -0.0244 -0.022667 -0.021333 -0.0206 -0.0206 -0.021867 -0.0235 -0.0253 -0.0253 -0.0245 -0.0231 -0.02104 -0.0194 -0.018333 -0.018333 -0.0178 -0.013667 -0.0064 0.0049 0.014833 0.025867 0.0391 0.048967 0.047367 0.0389 0.026433 0.0162 0.0054 -0.0037333 -0.0102 -0.0147 -0.018567 -0.0212 -0.0227 -0.024833 -0.026167 -0.0271 -0.0277 -0.027267 -0.0274 -0.027733 -0.027733 -0.0269 -0.026167 -0.0242 -0.0222 -0.020733 -0.020067 -0.019 -0.0182 -0.0162 -0.013 -0.0089333 -0.00428 0.0004 0.0041333 0.0081333 0.013 0.019 0.0256 0.0322 0.039433 0.046333 0.054 0.061533 0.07084 0.0799 0.0881 0.0974 0.1066 0.11767 0.12827 0.1402 0.15273 0.16673 0.1803 0.1925 0.2038 0.21513 0.22563 0.2353 0.24313 0.25273 0.2602 0.2687 0.27623 0.28233 0.2862 0.28833 0.288 0.2852 0.28047 0.28027 0.282 0.285 0.28693 0.2909 0.2891 0.28587 0.2825 0.2831 0.2872 0.2879 0.27757 0.2642 0.2661 0.2691 0.27232 0.2748 0.27367 0.25564 0.2408 0.23547 0.2302 0.2214 0.21593 0.2232 0.2282 0.22593 0.2188 0.2108 0.20373 0.20393 0.2043 0.1997 0.18887 0.1725 0.16283 0.1558 0.1618 0.1606 0.156 0.1486 0.14233 0.13944 0.1345 0.13257 0.13047 0.1295 0.1277 0.11407 0.0995 0.093167 0.085267 0.0795 0.075967 0.069133 0.0625 0.0559 0.05596 0.0476 0.041933 0.03188 0.0271 0.022567 0.021067 0.0199 0.018367 0.017733 0.0163 0.015033 0.0144 0.014433 0.013567 0.0127 0.012367 0.011267 0.0116 0.012 0.012933 0.013 0.012 0.011733 0.011667 0.0113 0.010767 0.011433 0.0117 0.0128 0.014333 0.0123 0.0106 0.01 0.0073 0.0048333 0.0028 0.0019333 0.0017 0.0011 -0.0002 -0.0024667 -0.004 -0.0047 -0.0058333 -0.00764 -0.0087 -0.0098333 -0.01164 -0.0128 -0.014267 -0.015533 -0.0167 -0.017533 -0.018267 -0.019167 -0.020033 -0.0209 -0.021067 -0.0213 -0.0213 -0.0211 -0.0213 -0.021267 -0.0211 -0.0213 -0.020733 -0.0155 -0.0050333 0.00948 0.0225 0.028767 0.03132 0.0256 0.019933 0.010067 0.0011333 -0.0061333 -0.0136 -0.0224 -0.028933 -0.02832 -0.0285 -0.0267 -0.02764 -0.0279 -0.0304 -0.029933 -0.032 -0.0348 -0.038133 -0.0381 -0.038833 -0.04028 -0.0414 -0.042267 -0.043533 -0.0448 -0.046033 -0.0469 -0.048267 -0.050467 -0.0516 -0.0521 -0.052733 -0.053 -0.0526 -0.053467 -0.0542 -0.0554 -0.057533 -0.05916 -0.0608 -0.0628 -0.06532 -0.0674 -0.068267 -0.068267 -0.0685 -0.067767 -0.066333 -0.0672 -0.068533 -0.069867 -0.071 -0.071767 -0.0729 -0.072633 -0.073767 -0.0743 -0.0745 -0.0743 -0.075 -0.0751 -0.076 -0.076 -0.076 -0.076067 -0.076 -0.077067 -0.077367 -0.0785 -0.0803 -0.081833 -0.083133 -0.0842 -0.084867 -0.085533 -0.085133 -0.0856 -0.085 -0.0851 -0.0853 -0.08444 -0.0827 -0.080067 -0.0774 -0.075 -0.072133 -0.06976 -0.067 -0.063867 -0.060533 -0.0584 -0.057067 -0.056333 -0.0577 -0.059067 -0.0602 -0.0628 -0.064033 -0.0643 -0.064 -0.064 -0.0634 -0.062 -0.0618 -0.0604 -0.0594 -0.058067 -0.05784
-0.0269 -0.0276 -0.0284 -0.0291 -0.0302 -0.0316 -0.0322 -0.0326 -0.032733 -0.032067 -0.0314 -0.030533 -0.0299 -0.029267 -0.028533 -0.028 -0.028733 -0.029333 -0.029933 -0.0294 -0.028467 -0.028133 -0.0282 -0.028333 -0.028167 -0.0282 -0.0274 -0.0267 -0.0258 -0.0238 -0.0224 -0.0204 -0.0196 -0.019 -0.0196 -0.0212 -0.022933 -0.0242 -0.024333 -0.0236 -0.022333 -0.020467 -0.0189 -0.018067 -0.017667 -0.017933 -0.0168 -0.011667 -0.0025667 0.0068 0.0172 0.029633 0.038 0.0368 0.028567 0.0182 0.0104 0.0025667 -0.0046 -0.0098667 -0.014433 -0.017467 -0.0208 -0.0233 -0.0256 -0.026933 -0.028 -0.028 -0.028 -0.0281 -0.0286 -0.0288 -0.0281 -0.0274 -0.025867 -0.023967 -0.0218 -0.020733 -0.020167 -0.0198 -0.017867 -0.014733 -0.010067 -0.005 0.00046667 0.0053333 0.0098 0.014767 0.0206 0.0266 0.032367 0.0382 0.044667 0.0516 0.06 0.0696 0.0789 0.088 0.0978 0.1073 0.1184 0.12893 0.1404 0.1528 0.16573 0.17887 0.1902 0.20147 0.21227 0.2222 0.23207 0.2407 0.25087 0.26127 0.2698 0.2772 0.28153 0.28407 0.28453 0.282 0.278 0.275 0.2748 0.2755 0.2782 0.27993 0.28317 0.28487 0.28393 0.28207 0.2846 0.28887 0.29017 0.2784 0.26953 0.27203 0.2802 0.2824 0.27864 0.276 0.2556 0.23108 0.2166 0.20347 0.19267 0.189 0.20807 0.22953 0.2384 0.233 0.2211 0.2094 0.19893 0.19773 0.1908 0.17353 0.15583 0.1402 0.13213 0.1271 0.12267 0.1184 0.1146 0.1124 0.1128 0.11183 0.111 0.119 0.1231 0.124 0.10747 0.0912 0.0788 0.0694 0.0642 0.0604 0.056 0.0548 0.0576 0.0546 0.05004 0.0432 0.0332 0.02572 0.0214 0.0204 0.019067 0.0184 0.017733 0.0169 0.0156 0.014733 0.014067 0.0132 0.013333 0.013067 0.0122 0.012067 0.013 0.013 0.012667 0.012 0.0118 0.0114 0.011 0.0112 0.012 0.0121 0.0128 0.013333 0.0114 0.0096 0.0080667 0.0069 0.0052 0.0034667 0.0032 0.0030667 0.0018667 -3.3333e-05 -0.0018 -0.0034 -0.004 -0.0048 -0.0062 -0.00724 -0.0082 -0.01 -0.01124 -0.0128 -0.0142 -0.014867 -0.0162 -0.017067 -0.0177 -0.018667 -0.0192 -0.019733 -0.0198 -0.020067 -0.019767 -0.02 -0.019933 -0.019933 -0.0206 -0.0174 -0.008 0.0092 0.0254 0.041 0.0502 0.0524 0.04132 0.032 0.0198 0.0077333 -0.0022 -0.010867 -0.02 -0.024533 -0.025933 -0.025533 -0.025 -0.0264 -0.02724 -0.0284 -0.0284 -0.0295 -0.0344 -0.0368 -0.036667 -0.0366 -0.0378 -0.03916 -0.0404 -0.041867 -0.042633 -0.0446 -0.045667 -0.046867 -0.0488 -0.050667 -0.051867 -0.052667 -0.0516 -0.0516 -0.0516 -0.051867 -0.053067 -0.0564 -0.0586 -0.05988 -0.0618 -0.064 -0.0658 -0.067 -0.067267 -0.067567 -0.0662 -0.065667 -0.066267 -0.068 -0.0692 -0.070933 -0.071 -0.071667 -0.071933 -0.072867 -0.073533 -0.073933 -0.074 -0.0744 -0.075 -0.0756 -0.0758 -0.0758 -0.0756 -0.075667 -0.075667 -0.075533 -0.075267 -0.076933 -0.078267 -0.079467 -0.0809 -0.0816 -0.081867 -0.082067 -0.0822 -0.082067 -0.0829 -0.0824 -0.0826 -0.08108 -0.0784 -0.0756 -0.07276 -0.07 -0.0682 -0.06552 -0.0624 -0.059933 -0.0575 -0.056 -0.055667 -0.055933 -0.057 -0.059133 -0.0612 -0.063 -0.063533 -0.064 -0.064 -0.0634 -0.062067 -0.0618 -0.060267 -0.0589 -0.058 -0.058
-0.02612 -0.027 -0.0278 -0.0292 -0.030267 -0.0322 -0.03312 -0.033267 -0.0334 -0.032733 -0.032 -0.0308 -0.0299 -0.02908 -0.0284 -0.028 -0.02836 -0.029333 -0.029267 -0.029667 -0.029 -0.0288 -0.02892 -0.029133 -0.028833 -0.0288 -0.0274 -0.02568 -0.024467 -0.0222 -0.02088 -0.019067 -0.0192 -0.01924 -0.019333 -0.0212 -0.022267 -0.0224 -0.0222 -0.0216 -0.02124 -0.0198 -0.0189 -0.01772 -0.017 -0.017267 -0.018 -0.015 -0.0092333 -0.0016667 0.008 0.018967 0.025467 0.0236 0.015233 0.0080667 0.002 -0.0027667 -0.0062 -0.0108 -0.0151 -0.01768 -0.0204 -0.0233 -0.026133 -0.0276 -0.028 -0.028 -0.028 -0.02812 -0.029 -0.029 -0.029 -0.028067 -0.0268 -0.024633 -0.0228 -0.0214 -0.020833 -0.020733 -0.0188 -0.0154 -0.01116 -0.0054 -0.0002 0.00568 0.011133 0.0161 0.02116 0.026467 0.0317 0.03676 0.043067 0.05 0.0588 0.0684 0.07896 0.088067 0.098 0.10824 0.11907 0.1296 0.1412 0.15333 0.1652 0.17753 0.18867 0.1992 0.20893 0.21827 0.2282 0.2387 0.24987 0.2606 0.2698 0.2768 0.2798 0.2794 0.27928 0.27827 0.2758 0.27213 0.2726 0.27284 0.27367 0.2754 0.2785 0.28028 0.28167 0.28033 0.28407 0.2906 0.29083 0.27993 0.273 0.27737 0.28487 0.2872 0.28413 0.2748 0.25 0.222 0.201 0.1848 0.16853 0.1672 0.1954 0.22647 0.24907 0.2552 0.2393 0.2185 0.2008 0.18907 0.17973 0.1554 0.12917 0.114 0.108 0.1071 0.0972 0.090667 0.08988 0.091267 0.092 0.087167 0.089067 0.1102 0.12244 0.1204 0.1028 0.0832 0.06408 0.053933 0.0474 0.046867 0.0468 0.0556 0.062267 0.0578 0.049667 0.041867 0.0312 0.024933 0.021267 0.0204 0.019733 0.019067 0.0184 0.0169 0.016067 0.0154 0.014733 0.0144 0.0144 0.013733 0.013333 0.0134 0.013 0.013 0.0124 0.012 0.01164 0.011 0.01088 0.010933 0.0112 0.01184 0.012867 0.0124 0.0094 0.00776 0.0075333 0.0069 0.0058 0.0044 0.004 0.004 0.0028 0.00063333 -0.0012 -0.0026 -0.0028667 -0.0039333 -0.0046 -0.0055333 -0.0069333 -0.0088 -0.0098667 -0.0108 -0.0122 -0.013533 -0.014533 -0.0152 -0.0157 -0.016867 -0.0176 -0.018267 -0.0186 -0.0186 -0.018433 -0.018933 -0.019 -0.019267 -0.0196 -0.0142 0.002 0.021667 0.0374 0.0554 0.0722 0.0752 0.060933 0.042267 0.0266 0.011067 0.0013333 -0.0086 -0.018 -0.022 -0.023133 -0.022867 -0.024267 -0.0268 -0.028133 -0.0268 -0.0264 -0.02948 -0.0342 -0.0356 -0.035333 -0.035 -0.0362 -0.036867 -0.037533 -0.0388 -0.039967 -0.0418 -0.0438 -0.045533 -0.0468 -0.0488 -0.050533 -0.0512 -0.05 -0.0496 -0.0496 -0.0496 -0.051733 -0.0554 -0.0582 -0.059533 -0.061133 -0.0632 -0.064533 -0.065533 -0.0662 -0.066233 -0.064933 -0.065 -0.066933 -0.068133 -0.0696 -0.070267 -0.070933 -0.071 -0.071667 -0.071933 -0.0726 -0.073267 -0.073933 -0.074 -0.074267 -0.074933 -0.0752 -0.07476 -0.074867 -0.075 -0.074333 -0.073267 -0.0726 -0.0716 -0.07208 -0.0736 -0.0749 -0.0756 -0.0764 -0.076733 -0.077667 -0.0778 -0.0769 -0.077733 -0.0778 -0.077267 -0.075667 -0.0724 -0.069733 -0.066933 -0.065 -0.062733 -0.060067 -0.0574 -0.0555 -0.0546 -0.0546 -0.055267 -0.055933 -0.0578 -0.0612 -0.062933 -0.063 -0.064 -0.063667 -0.063 -0.062333 -0.061733 -0.0604 -0.0589 -0.058067 -0.058
-0.0261 -0.027 -0.027633 -0.0292 -0.030933 -0.032267 -0.0334 -0.033933 -0.033367 -0.0327 -0.032 -0.030733 -0.0297 -0.028933 -0.02828 -0.028 -0.028 -0.02804 -0.0283 -0.028333 -0.028933 -0.0293 -0.0297 -0.02972 -0.0294 -0.0288 -0.0268 -0.0251 -0.023133 -0.021733 -0.0206 -0.019733 -0.0197 -0.0201 -0.020667 -0.0207 -0.021 -0.0204 -0.0203 -0.0203 -0.020233 -0.01956 -0.0187 -0.017933 -0.01724 -0.0173 -0.018 -0.017367 -0.0137 -0.0083333 -0.0010333 0.0072667 0.0096667 0.0088 0.0026 -0.0032667 -0.0055 -0.0081 -0.0102 -0.012933 -0.0162 -0.0189 -0.02088 -0.0232 -0.025467 -0.026867 -0.0276 -0.028 -0.028 -0.0284 -0.029 -0.029 -0.029 -0.028733 -0.0268 -0.0248 -0.0228 -0.021433 -0.0207 -0.020067 -0.0181 -0.0149 -0.010767 -0.0054 0.0003 0.0062333 0.0116 0.0167 0.021467 0.02612 0.031 0.035967 0.0426 0.0498 0.0588 0.068067 0.0784 0.088733 0.0987 0.1091 0.11973 0.13097 0.1426 0.15467 0.16597 0.177 0.18733 0.19628 0.20513 0.2149 0.2255 0.2368 0.24853 0.25756 0.2668 0.27237 0.2751 0.2755 0.27583 0.27517 0.2749 0.27347 0.27213 0.272 0.27233 0.27293 0.2751 0.27687 0.27964 0.2815 0.28673 0.2832 0.2834 0.27727 0.27777 0.2795 0.28527 0.2868 0.2834 0.2688 0.24373 0.22243 0.1978 0.1772 0.1547 0.1592 0.18417 0.2185 0.24773 0.26297 0.2495 0.2165 0.1919 0.1831 0.16413 0.1408 0.112 0.1 0.0946 0.0894 0.0805 0.076667 0.0776 0.079933 0.0702 0.0716 0.079733 0.10427 0.1143 0.1144 0.092167 0.071 0.050733 0.04592 0.0412 0.041533 0.052267 0.0594 0.055067 0.0513 0.0435 0.036533 0.029033 0.0236 0.022767 0.0213 0.0206 0.019733 0.018433 0.0174 0.016733 0.01584 0.015 0.015433 0.0157 0.0149 0.014667 0.014 0.0137 0.013267 0.013 0.012 0.011933 0.010833 0.0103 0.010267 0.010333 0.0107 0.011533 0.010967 0.0091 0.0077 0.00776 0.0071 0.0058 0.0044333 0.004 0.004 0.0028 0.0008 -0.00076667 -0.0014 -0.0021 -0.0032667 -0.0039333 -0.0049 -0.0062667 -0.00664 -0.0077 -0.0088 -0.010167 -0.0112 -0.011867 -0.01312 -0.013733 -0.015067 -0.0162 -0.0166 -0.0166 -0.01712 -0.017367 -0.0176 -0.0182 -0.018 -0.0176 -0.0081 0.0104 0.028467 0.0473 0.0671 0.0842 0.0851 0.069667 0.046167 0.029 0.0145 0.0026667 -0.0079333 -0.0156 -0.019733 -0.02112 -0.0225 -0.024933 -0.025 -0.0268 -0.0268 -0.0272 -0.0298 -0.0342 -0.034933 -0.035 -0.035 -0.035633 -0.0359 -0.035333 -0.0366 -0.0392 -0.040767 -0.0425 -0.0439 -0.0448 -0.046133 -0.0474 -0.0486 -0.0486 -0.048 -0.0476 -0.049467 -0.050733 -0.0547 -0.0573 -0.0597 -0.060467 -0.061867 -0.063633 -0.064033 -0.0645 -0.064 -0.064267 -0.064933 -0.0662 -0.067467 -0.06864 -0.069367 -0.070033 -0.0709 -0.0713 -0.071267 -0.07216 -0.073067 -0.0733 -0.0733 -0.0736 -0.074267 -0.074267 -0.0739 -0.073533 -0.072967 -0.0719 -0.069933 -0.067367 -0.0659 -0.065167 -0.06584 -0.067 -0.0676 -0.0696 -0.0701 -0.070333 -0.0676 -0.067367 -0.0689 -0.07 -0.0717 -0.070333 -0.067667 -0.065 -0.062267 -0.06064 -0.059 -0.056733 -0.054667 -0.0533 -0.0526 -0.0538 -0.055067 -0.0566 -0.0592 -0.0613 -0.062267 -0.06228 -0.063233 -0.063 -0.0624 -0.0617 -0.061067 -0.0598 -0.0589 -0.057567 -0.0569
